# .PCD v0.7 - Point Cloud Data file format
VERSION 0.7
FIELDS x y z intensity
SIZE 4 4 4 4
TYPE F F F F
COUNT 1 1 1 1
WIDTH 1444
HEIGHT 1
VIEWPOINT 0 0 0 1 0 0 0
POINTS 1444
DATA ascii
1.5012634 1.8962306 0.84286612 0
1.6991912 1.8979191 0.84429103 0
1.9003625 1.8970487 0.85191458 0
2.0988872 1.8939062 0.8591724 0
2.296834 1.8909327 0.87276435 0
2.4946451 1.889789 0.88424277 0
2.7013357 1.8900251 0.89769769 0
2.8998001 1.8877659 0.91521281 0
3.1171513 1.8870951 0.93395984 0
3.3108099 1.877121 0.891114 0
3.5024376 1.8748078 0.90649164 0
3.7049661 1.8737763 0.92359173 0
3.9117687 1.8720597 0.94160026 0
4.1050639 1.8830144 0.87632471 0
4.3260956 1.8863826 0.89166921 0
4.4653616 1.8752962 0.90902394 0
4.7027707 1.8841292 0.84110641 0
4.859571 1.8793446 0.85070211 0
5.1100569 1.876819 0.86674863 0
5.2954412 1.8543485 0.87743229 0
5.5091558 1.8542118 0.8917442 0
5.6968303 1.8389395 0.90353274 0
5.8988895 1.8234744 0.91650742 0
6.0746031 1.8170872 0.92834514 0
6.3025422 1.8205473 0.94452691 0
6.4223857 1.8009479 0.95192003 0
-4.738976 2.0394628 0.87344217 0
-4.5431976 2.1081173 0.9139412 0
-4.201447 2.1354873 0.82378536 0
-4.1521888 2.1390748 0.81926566 0
-3.9771056 2.1448398 0.80329168 0
-3.7532189 2.1746776 0.89129764 0
-3.0222044 2.1827893 0.91969556 0
-2.9957967 2.1798661 0.80643016 0
0.39144662 2.0460503 0.86674339 0
0.43353581 2.0466413 0.89110196 0
1.3355107 2.0411687 0.8726387 0
-4.4866929 2.3009715 0.97323799 0
-4.2026405 2.2078743 0.82303852 0
-3.7826712 2.3033135 0.89435661 0
-3.022177 2.300406 0.8799758 0
-2.8945842 2.2918472 0.91342598 0
-2.6865876 2.2791355 0.95094246 0
-2.27473 2.2445269 0.96864265 0
-2.1397247 2.3148308 0.94409347 0
-1.8135746 2.2862475 0.94687194 0
-1.7229863 2.3195307 0.89283818 0
-1.4995425 2.3733466 0.84912723 0
-1.3734022 2.3926809 0.90857446 0
-0.91597289 2.3814042 0.83191127 0
-0.61026686 2.3596194 0.85028487 0
-0.57463348 2.3670356 0.84535873 0
-4.5433445 2.4497042 0.9793036 0
-3.8146906 2.5171194 0.89758176 0
-3.7984374 2.408747 0.89596206 0
-3.0341694 2.4230211 0.90780532 0
-2.9176784 2.4100933 0.89235377 0
-2.687511 2.4734855 0.90291488 0
-2.5551093 2.5734231 0.93931723 0
-2.3014426 2.4807658 0.89919215 0
-2.0984051 2.4852097 0.90683329 0
-1.6963176 2.4730268 0.89690042 0
-1.4157177 2.4213145 0.86500579 0
-1.2876551 2.4531975 0.8770436 0
-1.1757038 2.4959359 0.88342494 0
-0.85549057 2.5076642 0.86285645 0
-0.75263196 2.5719364 0.92996621 0
-0.46471915 2.4683199 0.87568235 0
-25.729946 2.731689 0.94290781 0
-9.8836699 2.7042971 0.84049404 0
-2.7486131 2.6320932 0.87295824 0
-2.5625527 2.6163418 0.94164717 0
-2.1033468 2.6197693 0.87449205 0
-1.7169571 2.672883 0.988612 0
-1.2450471 2.6552629 0.82573515 0
-0.85934627 2.6395087 0.84466439 0
-0.74458718 2.6172307 0.93400657 0
-0.45391235 2.6880617 0.91197389 0
-25.670038 2.903085 0.93971795 0
-9.8959494 2.8414669 0.83830816 0
-0.63750714 3.7191284 0.80702955 0
0.33651182 4.3664546 0.96090996 0
-0.72914791 4.5267558 0.87234384 0
0.15281194 4.5193801 0.91380668 0
0.27326274 4.4402428 0.91512221 0
0.038801793 4.6681952 0.90886974 0
-0.88436532 4.9587297 0.80355442 0
-3.9052982 7.1771655 0.89958221 0
-3.85531 7.2667761 0.89382982 0
-0.24249253 7.3873649 0.83504605 0
-0.43032607 7.5766768 0.86556512 0
-0.31823471 7.452724 0.84685063 0
-0.46439585 7.6481581 0.87278908 0
-1.0647792 8.1342335 0.96612626 0
-0.92256725 8.076457 0.94646633 0
-1.1367058 11.392297 0.85005981 0
-1.0895842 11.423021 0.84529674 0
-0.96003366 11.436326 0.83066845 0
-1.2522987 11.661154 0.86920184 0
-1.3829858 12.293488 0.89791012 0
-21.108625 -12.282818 1.1479716 0
-21.112772 -12.179595 1.1516116 0
-21.31848 -11.513946 1.1837208 0
-21.429157 -11.38423 1.1934433 0
-20.92256 -11.21497 1.1727254 0
-19.829777 -10.811403 1.129181 0
-8.5242214 -5.2377815 1.1934897 0
-8.3063669 -5.2125087 1.1735644 0
-1.8777437 -5.2978735 1.0851889 0
-1.6781082 -5.2545152 1.0912861 0
-1.5011944 -5.2536416 1.0992178 0
-1.3133986 -5.2528496 1.0981035 0
-1.1003108 -5.2491455 1.118858 0
-0.90005416 -5.2566457 1.0920756 0
-0.71165693 -5.228189 1.1042694 0
-0.48876202 -5.2067242 1.1729232 0
-0.32966298 -5.207551 1.1367005 0
-0.11472639 -5.2033982 1.1242994 0
0.49127012 -5.2042456 1.0535148 0
0.66354781 -5.2127485 1.0360162 0
0.92058635 -5.2609582 1.0725702 0
1.0835083 -5.2625666 1.1304938 0
1.2968282 -5.2600236 1.1633275 0
1.4954698 -5.2569094 1.1463144 0
1.699314 -5.2599916 1.1310407 0
1.9048865 -5.2579179 1.1159414 0
2.1075988 -5.2651606 1.1034975 0
2.302459 -5.2634382 1.091291 0
2.4963269 -5.2683291 1.0810647 0
2.6993713 -5.2692862 1.0706713 0
2.9052954 -5.2479577 1.0578471 0
3.0994346 -5.2150416 1.0449305 0
3.2988062 -5.2143378 1.0371995 0
3.4937904 -5.2164874 1.0307626 0
3.6994457 -5.2243495 1.0255777 0
3.8930476 -5.2217717 1.0200266 0
4.0982184 -5.2262106 1.0157682 0
4.2898345 -5.2219009 1.0112737 0
4.5152745 -5.2695603 1.0132973 0
4.6970215 -5.2704411 1.0107479 0
4.8874626 -5.2735853 1.0087991 0
5.087039 -5.2795854 1.0075537 0
5.2902484 -5.2810588 1.0062298 0
5.4080772 -5.2606111 1.0032108 0
11.149238 -5.2204895 1.0893034 0
11.309719 -5.2269239 1.094254 0
11.504496 -5.2477417 1.1012079 0
-18.224627 -5.0556316 1.1942337 0
-8.1058216 -5.1913939 1.1551913 0
-7.907311 -5.1686273 1.1370072 0
-7.6766181 -5.1415792 1.1158606 0
-7.494091 -5.1201925 1.0991403 0
-7.3119063 -5.0976119 1.0824214 0
-7.1207752 -5.0824957 1.0647638 0
-6.8964148 -5.060905 1.0440527 0
-6.6812305 -5.0366759 1.024222 0
-6.5067496 -5.0211186 1.0080553 0
-0.97785801 -5.0700502 1.0850084 0
-0.65136802 -5.1935725 1.1055208 0
-0.50667781 -5.1914101 1.0455928 0
-0.29223186 -5.1953092 1.0448689 0
-0.09732461 -5.1961107 1.121282 0
0.098317198 -5.1890688 1.0966675 0
0.29662374 -5.1855373 1.0729949 0
0.50780767 -5.1973481 1.0508214 0
0.72172546 -5.1877279 1.0267793 0
1.2580475 -5.0484557 1.1335435 0
2.4303007 -5.1667914 1.0696919 0
2.9086864 -5.1991849 1.0506954 0
9.1451511 -5.0097198 1.0224276 0
9.3176231 -5.0250311 1.0276663 0
9.4956522 -5.0417519 1.033193 0
9.6869202 -5.0644422 1.0395751 0
9.8770828 -5.080266 1.0454886 0
10.076004 -5.1024237 1.0521784 0
10.284744 -5.1235671 1.0591251 0
10.507935 -5.1499538 1.0668464 0
10.730705 -5.1741958 1.0745552 0
10.907454 -5.1917977 1.0806112 0
11.017541 -5.1999826 1.084217 0
-18.128565 -4.9272189 1.1920083 0
-6.441504 -4.998517 1.1981879 0
-6.2990155 -4.9838176 1.1821098 0
-6.0872521 -4.9659095 1.1581901 0
-5.8829145 -4.9477124 1.1351286 0
-5.6838884 -4.9271965 1.1126745 0
-5.4858575 -4.9028397 1.0903472 0
-5.3277688 -4.9061675 1.072549 0
8.4758043 -4.9499125 1.0029837 0
8.6982803 -4.9665647 1.0090363 0
8.8944035 -4.9842119 1.0147396 0
9.0214005 -4.9969511 1.0185956 0
-18.233627 -4.7524848 1.1996589 0
-1.9557655 -4.7321343 1.1972739 0
3.3329515 -4.7937589 1.1802828 0
5.3947477 -4.7787333 1.1962237 0
5.4903355 -4.7516704 1.1952219 0
5.6253848 -4.7585902 1.1999464 0
-14.791316 -3.950809 1.0558821 0
-14.471394 -3.6478162 1.0461526 0
-14.454659 -3.5348785 1.047068 0
-14.344495 -3.4582546 1.0432261 0
-16.912352 -3.3055267 1.1604263 0
-14.670037 -3.2061465 1.0614153 0
-14.217981 -3.3740184 1.0387454 0
-14.084323 -3.2865472 1.0339752 0
-13.985808 -3.2126584 1.0305825 0
-17.301352 -3.0722644 1.1803691 0
-17.052738 -3.0869701 1.169175 0
-16.683949 -3.1120954 1.1525073 0
-14.779093 -3.1735504 1.0667349 0
-13.95479 -3.1275387 1.0303637 0
-17.130655 -2.9744637 1.1738385 0
-16.834015 -2.8328834 1.1621592 0
-13.925454 -2.8856449 1.0322262 0
-16.9189 -2.7237425 1.1670145 0
-16.710899 -2.5996668 1.1590295 0
-16.661314 -2.1083555 1.1609472 0
-32.102337 -1.8593619 1.1151674 0
9.3151989 -1.8646557 1.1713743 0
9.3218956 -1.7863579 1.1687517 0
-10.254502 -1.5109097 1.1241628 0
9.2909451 -1.2108003 1.1473631 0
-9.8894939 -1.042341 1.1020641 0
9.2539005 -1.0963424 1.1415271 0
-15.997336 -0.83149606 1.1276531 0
-9.8816719 -0.91473085 1.1019547 0
-16.02284 -0.7152617 1.1289231 0
-15.992842 -0.77012104 1.1275697 0
9.4765596 -0.47460914 1.1476953 0
9.4698629 -0.34826294 1.1459117 0
-16.073357 0.14361347 1.1307409 0
-15.88254 0.19855665 1.1224855 0
-15.844376 0.25077933 1.120737 0
16.132483 0.25583166 1.1121686 0
-14.960857 0.47984898 1.0826033 0
14.312161 0.51285666 1.0338724 0
17.13945 0.56266779 1.1567216 0
17.403402 0.51239288 1.1679909 0
17.682266 0.45770371 1.1799269 0
-14.970242 0.69528228 1.0820808 0
15.680631 0.77831268 1.0946373 0
16.247143 0.69422758 1.1186558 0
-15.013052 0.9949671 1.0823007 0
-14.978046 0.88296396 1.0814654 0
-7.740787 0.96867144 1.1486448 0
14.099114 0.98119074 1.027943 0
14.378814 0.9552027 1.0397452 0
14.61423 0.92153376 1.0496563 0
15.198689 0.85654736 1.0743577 0
15.425987 0.81750959 1.0838927 0
-15.003402 1.1011128 1.0812203 0
-14.992233 1.0984919 1.0807571 0
-7.7507401 1.0113674 1.1493332 0
13.52301 1.0796371 1.0042139 0
13.896433 1.0134875 1.019544 0
-15.008099 1.2066619 1.0807033 0
-14.993385 1.3152261 1.0792838 0
-4.3487463 1.2907183 1.1908078 0
-2.648648 1.3838441 1.0913162 0
5.487741 1.3583435 1.0590765 0
-14.987439 1.4771074 1.0777879 0
3.9446754 1.4171841 1.0318471 0
9.1458778 1.5881363 1.1439359 0
9.2276487 1.5697632 1.1495384 0
5.9306388 1.7858294 1.1335512 0
6.0923004 1.784881 1.1505132 0
6.2543936 1.7900257 1.1680145 0
6.464529 1.7980715 1.1908873 0
7.1506991 1.766854 1.0025017 0
7.3054943 1.7421734 1.0126456 0
7.4965687 1.7125947 1.0253135 0
7.6865692 1.7050025 1.0389867 0
7.9059877 1.7013283 1.0550673 0
8.1000977 1.6893156 1.0689991 0
8.2896242 1.6589317 1.0819578 0
8.4561644 1.6369333 1.0935998 0
8.9950619 1.6686006 1.1353035 0
9.0741863 1.6061631 1.1391072 0
-5.8362713 1.8795319 1.1250875 0
-5.6572042 1.9293163 1.1049545 0
-5.5732741 1.9960991 1.0954359 0
-5.3134828 1.9634297 1.0664181 0
-5.0247269 1.9704187 1.0340843 0
3.2957242 1.889979 1.0099721 0
3.4884686 1.8876096 1.0307953 0
3.6902614 1.8861461 1.0535194 0
3.8935101 1.880571 1.0766116 0
4.1028805 1.8782961 1.1015203 0
4.3298554 1.8833982 1.130042 0
4.5052743 1.8636614 1.1239449 0
4.6911502 1.8707778 1.0144234 0
4.8527875 1.8673022 1.1005013 0
5.1061554 1.8233678 1.0514226 0
5.2961545 1.8525432 1.0730544 0
5.5156765 1.8301845 1.0936297 0
5.6966696 1.8121574 1.1109936 0
5.8473678 1.8018003 1.1259335 0
6.4012017 1.8019704 1.1843913 0
-5.0270772 2.0256565 1.0342222 0
-4.9866624 2.0534947 1.0296472 0
-4.7252007 2.0553598 1.0645747 0
-4.5680637 2.1513526 1.1087832 0
-4.2169585 2.1082616 1.0615608 0
-4.1650777 2.1424208 1.0548823 0
-3.7637537 2.1795022 1.0018005 0
-3.0245991 2.1823459 1.1363108 0
-16.903467 2.2726076 1.1521987 0
-4.215755 2.2789195 1.0627636 0
-4.1917033 2.3347535 1.0600626 0
-3.868649 2.3246744 1.0170611 0
-3.0298498 2.2796569 1.0995715 0
-2.6446528 2.3908782 1.0367978 0
-2.1580622 2.3950472 1.0484179 0
-1.8047733 2.2980204 1.0626171 0
-1.7367836 2.3190308 1.0787282 0
-1.4259877 2.3182423 1.0940944 0
-1.3242906 2.3442822 1.0759188 0
-0.89209563 2.3734794 1.0922112 0
-0.79340595 2.3861539 1.073903 0
-17.01322 2.5349355 1.1539342 0
-16.943245 2.432291 1.1520936 0
-3.8597159 2.4915278 1.0174619 0
-3.0487084 2.5029495 1.109628 0
-2.6391385 2.4301782 1.0375015 0
-2.1509795 2.4646029 1.0515985 0
-1.7273983 2.49946 1.1105605 0
-1.4631082 2.5166156 1.0165652 0
-1.2989585 2.4780736 1.0431051 0
-1.1622785 2.5479002 1.0692344 0
-0.83963764 2.5927968 1.0138896 0
-0.70429772 2.5025599 1.0689615 0
-0.43636474 2.4610267 1.0489186 0
-17.105661 2.6718409 1.1562932 0
-9.9619865 2.7648458 1.0837747 0
-3.8399639 2.6023331 1.0159616 0
-3.0709128 2.6317034 1.1184556 0
-1.6742415 2.631283 1.0872194 0
-1.5705351 2.6162288 1.0463446 0
-1.0595583 2.665072 1.0650676 0
-0.94020987 2.6618054 1.0421224 0
-0.60723913 2.6022072 1.0757421 0
-0.53594249 2.6424422 1.0700692 0
-17.305296 2.8926132 1.162168 0
-9.9027786 2.9043424 1.0778527 0
-0.47796464 2.8463941 1.0969298 0
-17.250246 3.0062027 1.1583165 0
-17.146126 3.1170115 1.1523166 0
-17.233511 3.3234539 1.1532236 0
-17.058208 3.5101528 1.1428086 0
-5.3171902 3.5724397 1.0639616 0
-17.097542 3.6799924 1.1418961 0
-17.404898 3.808409 1.1533144 0
-17.219276 3.8633208 1.144274 0
-17.042343 3.9533663 1.1350549 0
-17.278549 4.169136 1.1417626 0
-17.163927 4.0775428 1.1382943 0
-17.290722 4.237071 1.1411042 0
-17.022728 4.2667799 1.1287076 0
-16.903845 4.3368659 1.1221567 0
-16.954363 4.4126263 1.1229961 0
0.13172184 4.5372548 1.1024095 0
0.27838889 4.4480023 1.1314149 0
0.041710887 4.656518 1.1003921 0
-0.016328204 4.8253341 1.0587156 0
-8.2503433 5.3839235 1.1517942 0
-3.9381647 7.1906853 1.0989411 0
-3.8741951 7.2864113 1.0927616 0
-0.24700625 7.3843246 1.0832388 0
-3.8432779 7.4412198 1.0918005 0
-0.41609603 7.5101786 1.0345957 0
-0.34461388 7.44066 1.0212985 0
-0.46798331 7.6258335 1.0487032 0
-1.0713794 11.378323 1.1122131 0
-0.99250203 11.397868 1.1037568 0
-1.1604034 11.438362 1.1254631 0
-0.93580693 11.417431 1.0979528 0
-1.2264773 11.625556 1.1417112 0
-2.5354207 19.87084 1.1941493 0
-22.760427 -13.012412 1.2103512 0
-22.844725 -12.953981 1.2166636 0
-21.399393 -11.076639 1.2013433 0
-21.8624 -10.881912 1.2305923 0
-21.440187 -10.910515 1.2084055 0
-23.554621 -10.652558 1.3213439 0
-24.653723 -10.412427 1.3815264 0
-23.619761 -10.473817 1.3293444 0
-23.589869 -10.566833 1.3253902 0
-22.500629 -10.512098 1.2730248 0
-22.225231 -10.533171 1.2587384 0
-21.915302 -10.476228 1.2448891 0
-21.702785 -10.469839 1.2344511 0
-21.422462 -10.477364 1.2202163 0
-24.31101 -10.377147 1.3657383 0
-23.874151 -10.294129 1.3465638 0
-23.638998 -10.335352 1.3339632 0
-22.524994 -10.37758 1.2779545 0
-14.850919 -8.7325211 1.3318597 0
-20.753975 -8.443162 1.2418226 0
18.522814 -6.4155183 1.3964001 0
18.538015 -6.3500566 1.3934468 0
18.627237 -6.314302 1.3946712 0
-1.8808453 -5.247335 1.3129529 0
-1.7146122 -5.2507854 1.2918175 0
-1.5041808 -5.2578192 1.3253435 0
-1.3005831 -5.2580037 1.2943431 0
-1.1001301 -5.2529769 1.2640135 0
-0.90430087 -5.2497773 1.2353529 0
-0.74477482 -5.2432823 1.238582 0
-0.5593816 -5.2054806 1.3657364 0
0.15513191 -5.2015004 1.2715372 0
0.25490475 -5.2017679 1.2597005 0
0.53900766 -5.2020035 1.2277805 0
0.68140876 -5.2048945 1.2340817 0
0.88583195 -5.2564015 1.3200864 0
1.0966096 -5.2570906 1.3724915 0
1.3021213 -5.2525034 1.354359 0
1.501333 -5.253551 1.3391902 0
1.7035989 -5.2547808 1.3252479 0
1.9092486 -5.2536383 1.3120172 0
2.1013868 -5.2594876 1.3022019 0
2.2947025 -5.2555809 1.2917269 0
2.4985626 -5.2596993 1.2834244 0
2.701014 -5.2603402 1.2757452 0
2.9080303 -5.2387013 1.2651213 0
3.1045275 -5.2138062 1.255487 0
3.3016448 -5.2101827 1.2506274 0
3.4944704 -5.2079172 1.246998 0
3.6983287 -5.2147322 1.2456018 0
3.896188 -5.2195206 1.2448113 0
4.1008177 -5.2241068 1.244791 0
4.2922125 -5.2192187 1.2440544 0
4.5146227 -5.2630177 1.2516273 0
4.6835341 -5.2680817 1.2535741 0
4.8830013 -5.2646298 1.2551012 0
5.0971274 -5.2685103 1.2585512 0
5.3135772 -5.2661324 1.2618078 0
5.4150281 -5.2266626 1.2581655 0
-8.2094889 -5.1788878 1.3976915 0
-8.0813732 -5.1622467 1.3832233 0
-7.887013 -5.1433372 1.3612834 0
-7.6973057 -5.1226773 1.3398666 0
-7.5156975 -5.102797 1.3193898 0
-7.3089252 -5.0795908 1.2960486 0
-7.1077971 -5.0625777 1.2733527 0
-6.9147773 -5.0421062 1.2515676 0
-6.69946 -5.020505 1.2272904 0
-6.502316 -5.0101628 1.2706965 0
-6.3643537 -5.0049477 1.3846073 0
-1.9460534 -5.1122384 1.30427 0
-0.65085 -5.1893134 1.3762691 0
-0.49744368 -5.196238 1.3556041 0
-0.2991862 -5.1890821 1.3272761 0
-0.09827283 -5.1918278 1.301459 0
0.092188329 -5.1811314 1.2759759 0
0.31002033 -5.1904602 1.2515409 0
0.46595523 -5.1923509 1.2342397 0
0.75634784 -5.1927423 1.3212626 0
2.3883801 -5.0479712 1.2497143 0
2.9242241 -5.195015 1.2569319 0
4.690393 -5.1674376 1.2385539 0
5.4177141 -5.1066327 1.2414922 0
9.3120193 -5.0077605 1.3897253 0
-6.2520761 -4.9934869 1.3696587 0
-6.0925264 -4.9787998 1.3484473 0
-5.8922815 -4.9634867 1.3218827 0
-5.6961455 -4.9470344 1.2959158 0
-5.5045238 -4.9284067 1.2705519 0
-5.3264117 -4.9209471 1.2471979 0
-1.943704 -4.9193516 1.2843559 0
0.14438407 -4.9958954 1.2401549 0
1.2454795 -4.9517579 1.3010415 0
5.3979206 -4.8147831 1.2011491 0
5.411798 -4.9282951 1.216872 0
6.5396709 -4.8024912 1.2364824 0
6.6826053 -4.8080797 1.242726 0
6.8838391 -4.8196001 1.2522023 0
7.0929461 -4.8321023 1.2624496 0
7.3133078 -4.8458776 1.2735929 0
7.5120635 -4.8561764 1.2836618 0
7.6936688 -4.8695621 1.2935181 0
7.8789711 -4.8815694 1.3035711 0
8.0770388 -4.8964024 1.3147134 0
8.2853422 -4.9133821 1.3267733 0
8.5095739 -4.9369025 1.3404654 0
8.6974678 -4.9524813 1.3516742 0
8.8978453 -4.9717889 1.3640674 0
9.1025009 -4.9906526 1.3767735 0
-18.238871 -4.6453099 1.2015973 0
-5.1295033 -4.7906952 1.2193226 0
-2.0316753 -4.7236862 1.2931558 0
-1.9590846 -4.7453146 1.2994792 0
5.717371 -4.7588997 1.2027318 0
5.9004331 -4.769237 1.2097861 0
6.1112738 -4.7799177 1.2181575 0
6.3099446 -4.7902079 1.2264464 0
6.4488201 -4.7990017 1.2326155 0
-18.320948 -4.5295682 1.2070431 0
-14.549863 -3.2759786 1.3976884 0
-37.345299 -2.551779 1.2236174 0
-37.159451 -2.4109707 1.220426 0
-37.197575 -2.2825315 1.2218305 0
-18.93243 -2.1173003 1.2603173 0
20.957067 -0.095425412 1.3220723 0
19.313192 0.17373139 1.2503494 0
19.79318 0.11139075 1.2712219 0
20.115597 0.048769433 1.2852783 0
12.519446 0.79514104 1.3885592 0
-7.8777514 0.96696794 1.3550869 0
-7.7264199 0.97760814 1.3381411 0
-7.7313094 1.0199656 1.3386134 0
-6.0642147 1.1534581 1.3053654 0
-4.3367577 1.2659438 1.3025408 0
-2.6258569 1.3710134 1.2935749 0
5.4970841 1.3672478 1.2405466 0
11.54198 1.3504403 1.3213873 0
11.761648 1.3393168 1.3381708 0
12.119621 1.2977507 1.3651518 0
12.506001 1.2552953 1.394374 0
10.292396 1.4969788 1.2286315 0
10.480026 1.4719367 1.242359 0
10.653077 1.4590675 1.2553295 0
10.909575 1.4235207 1.2741954 0
6.2791748 1.7822316 1.3795319 0
6.5311465 1.7734618 1.2676086 0
6.7322836 1.7704972 1.217864 0
6.8938999 1.7465205 1.2338958 0
7.0723009 1.7158098 1.251497 0
7.2643585 1.7158669 1.2724453 0
7.4852142 1.7046475 1.2960314 0
7.6712618 1.6846712 1.315454 0
7.8744569 1.6623797 1.3367844 0
8.0084391 1.6386962 1.3504871 0
8.324358 1.6629343 1.3867 0
8.4023409 1.6353886 1.3941301 0
-5.8629708 1.9205141 1.2810248 0
-5.4938869 1.9322176 1.3785371 0
-5.3253202 1.9662319 1.3525232 0
4.9034123 1.9368013 1.2084391 0
5.1381836 1.8819364 1.2334921 0
5.286025 1.8633848 1.2513517 0
5.4870515 1.8164418 1.2739351 0
5.68753 1.8159298 1.3010002 0
5.8971372 1.8241369 1.3302208 0
6.0888181 1.8117462 1.3555084 0
6.55443 1.8003262 1.2006289 0
-5.854991 2.0875463 1.2808219 0
-5.2825055 2.0755856 1.3473066 0
-4.9203463 2.103091 1.2910587 0
-4.6440425 2.0965614 1.374823 0
-4.5849514 2.1069856 1.2959141 0
-3.0310721 2.1862197 1.3118213 0
-2.6969092 2.1976511 1.3748964 0
-5.8895216 2.2602649 1.2864521 0
-4.6302829 2.3269634 1.3198029 0
-4.5955148 2.2209566 1.2424154 0
-3.02689 2.3081024 1.2689897 0
-2.6594872 2.2340524 1.3690776 0
-2.568105 2.3426614 1.357094 0
-2.2251697 2.2546015 1.3954486 0
-2.0871119 2.3006117 1.3652842 0
-1.7542175 2.300071 1.2802032 0
-4.6522408 2.4564912 1.3209076 0
-3.0459235 2.5003729 1.289194 0
-2.4915938 2.5058537 1.3549948 0
-2.0080311 2.4161763 1.3601438 0
-1.9807365 2.4477572 1.3575354 0
-1.7653841 2.4928222 1.3104516 0
-3.0592029 2.6284111 1.3091402 0
-2.4239938 2.6364574 1.3527592 0
-2.3901017 2.679682 1.3495506 0
-1.7760246 2.6537845 1.2988994 0
0.13987453 4.5239129 1.324689 0
0.2674233 4.4420376 1.2931135 0
-0.014911204 4.7922621 1.3961735 0
0.031851955 4.6703882 1.332085 0
-3.8838737 7.2711377 1.2926892 0
-0.25615937 7.3897104 1.2995629 0
-0.42763948 7.5564365 1.2378063 0
-0.337235 7.4395828 1.2157004 0
-1.1195403 11.375893 1.3823067 0
-1.0226132 11.415909 1.3732266 0
-0.9468931 11.435621 1.3654 0
-2.6043832 19.855286 1.2017872 0
-30.114979 -12.511066 1.5937244 0
19.188211 -8.7764587 1.5606737 0
19.330923 -8.6869097 1.5588874 0
19.365839 -8.5043411 1.5479102 0
19.337101 -8.2966976 1.5336348 0
19.296642 -8.0821304 1.5187863 0
19.265617 -7.9191976 1.5076766 0
19.192352 -7.6222768 1.4871489 0
19.230183 -7.7475739 1.4959848 0
19.192291 -7.5091577 1.4804049 0
19.129025 -7.3303127 1.4678373 0
18.859358 -7.1148772 1.4464954 0
18.617691 -6.8778019 1.4249673 0
21.387104 -6.9386516 1.5240532 0
18.57917 -6.6840839 1.4128475 0
19.960001 -6.623323 1.457458 0
20.647392 -6.7730389 1.4894031 0
18.559601 -6.5384374 1.4042852 0
19.282385 -6.4672999 1.4255732 0
-8.6210203 -5.2200117 1.44418 0
-8.5065632 -5.2121506 1.4312341 0
-8.3786726 -5.2013426 1.4167982 0
-1.883248 -5.2355976 1.5820093 0
-1.6939385 -5.242754 1.5500308 0
-1.4970586 -5.2439547 1.5167217 0
-1.2933326 -5.2429862 1.483109 0
-1.0935086 -5.2396564 1.4507903 0
-0.90014297 -5.2452216 1.4218527 0
-0.74394119 -5.2459116 1.4962198 0
-0.57128525 -5.2010942 1.5595384 0
0.12505518 -5.2034159 1.4647012 0
0.3961108 -5.2026997 1.4323008 0
0.5323692 -5.2038302 1.4174614 0
0.68946642 -5.2060351 1.4587271 0
0.90981412 -5.252583 1.5913862 0
1.0946078 -5.2515397 1.5748616 0
1.2999334 -5.2494221 1.5579991 0
1.5001652 -5.256772 1.5454404 0
1.7038602 -5.2611799 1.5337238 0
1.9091858 -5.2581415 1.5218502 0
2.101428 -5.2655678 1.5144864 0
2.2946951 -5.2624941 1.5062065 0
2.4926012 -5.2596974 1.4992373 0
2.7001758 -5.2661781 1.4954535 0
2.9043164 -5.2317514 1.4844658 0
3.1008956 -5.215951 1.4789842 0
3.3000503 -5.2167554 1.4782035 0
3.4979901 -5.2188454 1.4787886 0
3.6974881 -5.2235055 1.4810284 0
3.8944254 -5.228055 1.4842476 0
4.0973253 -5.2301412 1.4880416 0
4.2917814 -5.2305822 1.4922842 0
4.5169072 -5.278933 1.507008 0
4.689815 -5.2817101 1.5126417 0
4.9017291 -5.2815132 1.5197231 0
5.0970163 -5.2835441 1.5273541 0
5.3090954 -5.2767582 1.5349312 0
11.388227 -5.2060475 1.5270162 0
11.523645 -5.2227421 1.5366076 0
-8.2913704 -5.1874833 1.4069357 0
-7.8612466 -5.154027 1.5846155 0
-7.6741529 -5.1336322 1.5595087 0
-7.4888163 -5.1127081 1.5346671 0
-7.312748 -5.0927954 1.5110883 0
-7.1115303 -5.0723128 1.4841686 0
-6.9199042 -5.0550442 1.458589 0
-6.705945 -5.0339999 1.4300467 0
-6.5322409 -5.0194759 1.4069386 0
-1.9539472 -5.0767641 1.5713931 0
-0.63563544 -5.1881213 1.5666803 0
-0.48536047 -5.1711431 1.5410807 0
-0.29234725 -5.1897655 1.5170857 0
-0.091750644 -5.1877546 1.4893953 0
0.10609257 -5.1837254 1.4632566 0
0.29705575 -5.1941481 1.4421482 0
0.47280845 -5.1969795 1.4226508 0
0.71174103 -5.1814094 1.5938668 0
4.6406522 -5.1555438 1.4883348 0
5.3837495 -5.106082 1.5095173 0
9.5371904 -5.0315533 1.4043232 0
9.7274647 -5.0497408 1.4165764 0
9.9154835 -5.0684052 1.4288459 0
10.127691 -5.093544 1.4431709 0
10.328642 -5.1122093 1.4563702 0
10.496071 -5.1297302 1.467612 0
10.657295 -5.1444502 1.4782853 0
10.88263 -5.166615 1.4934423 0
11.096038 -5.1784372 1.5071377 0
11.247311 -5.1831956 1.5166042 0
-6.4363523 -4.9926057 1.5931351 0
-6.2998667 -4.982749 1.5722612 0
-6.0836143 -4.9615507 1.5390515 0
-5.8813314 -4.9459639 1.5081866 0
-5.7138467 -4.9347243 1.4827656 0
-1.9489534 -4.8810024 1.5421165 0
3.3680439 -4.8974061 1.413986 0
5.3768511 -4.9095573 1.4767703 0
5.9545159 -4.8001809 1.4915272 0
6.1040611 -4.8086882 1.5019851 0
6.2996254 -4.8173218 1.5156521 0
6.5055265 -4.8283324 1.5307319 0
6.6984558 -4.8395882 1.5453968 0
6.8954639 -4.8492231 1.5604657 0
7.1032906 -4.8605876 1.5769006 0
7.2914815 -4.8706932 1.5920467 0
-2.0574825 -4.7170453 1.5385927 0
-1.9607449 -4.729732 1.5224521 0
5.3807321 -4.7797637 1.4559191 0
5.5127439 -4.7716279 1.4616992 0
5.707715 -4.7833786 1.4744401 0
5.899137 -4.7936339 1.4872243 0
-16.673143 -3.8365552 1.5349418 0
-14.647767 -3.2191646 1.4047413 0
-14.681048 -3.1706557 1.4073824 0
-24.287842 -0.9472726 1.478647 0
-24.145443 -0.80663878 1.4727424 0
-24.107136 -0.67878598 1.4712543 0
-24.070322 -0.55567968 1.4697185 0
-23.959778 -0.46674019 1.4650283 0
-24.092295 -0.2955099 1.4705404 0
-24.346151 -0.12914163 1.48112 0
-16.358644 0.25560492 1.5292846 0
-16.035519 0.30676979 1.5078359 0
-15.133095 0.50511879 1.4478775 0
-15.141971 0.69382656 1.4479005 0
-15.152963 0.91088849 1.4478613 0
-7.7492256 0.97343528 1.5328758 0
14.503198 0.97441059 1.5461867 0
15.06939 0.90903699 1.589862 0
-15.09581 1.1248255 1.4388804 0
-7.7209635 1.0116907 1.5290922 0
14.143736 1.0423645 1.5189062 0
14.293645 1.0055732 1.530146 0
-15.004223 1.3123524 1.4275728 0
-14.995617 1.3093486 1.4270256 0
-4.3163247 1.2804186 1.4290303 0
-2.6127148 1.3547835 1.4126232 0
-2.5953259 1.37139 1.5413538 0
12.641448 1.2288733 1.4044396 0
-14.994858 1.4989557 1.4258697 0
8.697135 1.5920248 1.4251853 0
8.8300772 1.5716738 1.4392419 0
9.0859528 1.5735619 1.4680517 0
9.3387775 1.5557177 1.4958096 0
9.4905128 1.5152323 1.5114172 0
9.6229725 1.4901261 1.5254853 0
10.101724 1.4824793 1.5794575 0
10.241573 1.4528558 1.5943508 0
6.5449152 1.7723496 1.4157903 0
6.6835189 1.7772007 1.4355246 0
6.8773203 1.7648616 1.4619014 0
7.0844765 1.7291262 1.488748 0
7.2986665 1.7208457 1.5186125 0
7.505919 1.7080944 1.5473514 0
7.7194238 1.6929722 1.5769768 0
7.8862867 1.6765989 1.5999585 0
8.5323181 1.6188022 1.4078987 0
-25.74514 2.7474766 1.5258386 0
-25.772779 2.8886755 1.5257523 0
-18.064714 4.4234123 1.5993636 0
0.1416081 4.5449357 1.5042536 0
0.285418 4.4510894 1.4644417 0
0.054787602 4.6709452 1.5448513 0
0.012086237 4.8141217 1.5836387 0
-0.27212575 7.3880091 1.4000024 0
-0.43056303 7.533699 1.4375222 0
-0.34293985 7.4433885 1.4155607 0
-0.48487377 7.6580639 1.4594228 0
-1.3039509 12.146415 1.4570504 0
-19.88283 -11.485215 1.6337947 0
-19.909376 -11.320599 1.639277 0
-19.952278 -11.109882 1.6468588 0
-19.995461 -10.902057 1.6543205 0
-20.035404 -10.700269 1.6613555 0
-20.097733 -10.50773 1.669713 0
-14.840395 -8.7752542 1.7410779 0
-21.033543 -8.2554388 1.7755582 0
-20.898884 -8.3299522 1.7650836 0
25.253963 -7.5510588 1.6938016 0
-8.5269184 -5.2319889 1.6741838 0
-8.3098803 -5.2071738 1.6449475 0
-1.874218 -5.2356834 1.7897989 0
-1.7003891 -5.2458878 1.7586941 0
-1.4910444 -5.2427855 1.7195946 0
-1.2895033 -5.2486143 1.6849735 0
-1.0954102 -5.2396445 1.6501577 0
-0.8965205 -5.2550836 1.6204344 0
-0.77537036 -5.2378707 1.6669102 0
0.79013556 -5.2117977 1.7774744 0
0.89516091 -5.2411742 1.7601652 0
1.105857 -5.2454286 1.7587266 0
1.3058324 -5.2471828 1.7441839 0
1.5013077 -5.2473245 1.7314042 0
1.7032068 -5.2493715 1.7205963 0
1.8996391 -5.2528243 1.7122952 0
2.0992641 -5.2523265 1.7046131 0
2.3049598 -5.2569909 1.6998441 0
2.5125129 -5.2576928 1.6958202 0
2.6993494 -5.260448 1.6942111 0
2.8885074 -5.2417898 1.6887233 0
3.1012866 -5.2145219 1.6828153 0
3.3010907 -5.2162118 1.6853552 0
3.4917421 -5.2126675 1.6878451 0
3.6943996 -5.2174401 1.6937301 0
3.9023964 -5.2202835 1.7005717 0
4.1060042 -5.2240109 1.7086803 0
4.2841101 -5.221509 1.7154425 0
4.5045757 -5.2645979 1.7347327 0
4.7037134 -5.2701049 1.7459408 0
4.9070807 -5.271945 1.7575666 0
5.0993419 -5.2706108 1.7687206 0
5.3118949 -5.2643399 1.7810874 0
-8.1032972 -5.1822076 1.6171482 0
-7.9792833 -5.16853 1.6004866 0
-7.7107744 -5.1256866 1.7904277 0
-7.5259686 -5.1047292 1.7616693 0
-7.3092499 -5.0763955 1.7278709 0
-7.1078219 -5.0576696 1.6967005 0
-6.9127784 -5.036531 1.6664823 0
-6.697299 -5.0162134 1.6332661 0
-6.4937286 -5.0059123 1.7330513 0
-1.9508452 -5.081552 1.7769794 0
-1.0013787 -5.1691318 1.6211407 0
-0.67219508 -5.1774163 1.7755044 0
-0.49376723 -5.1706476 1.7456878 0
-0.29258257 -5.1750469 1.716336 0
-0.09203238 -5.1819854 1.689611 0
0.10769148 -5.170238 1.6603985 0
0.30561146 -5.183897 1.6391009 0
0.51801562 -5.1872873 1.672904 0
0.67443722 -5.1875763 1.740146 0
1.2607226 -5.1740289 1.7278904 0
2.9785237 -5.196806 1.6778764 0
5.3832417 -5.0912251 1.7523999 0
8.9187241 -5.0128622 1.7394466 0
9.121006 -5.0293179 1.758541 0
9.287715 -5.0456371 1.7747282 0
9.4706669 -5.0654583 1.792845 0
-6.4905519 -4.9980154 1.6014773 0
-6.2958145 -4.9898357 1.7647315 0
-6.0805712 -4.9701862 1.7274345 0
-5.9050183 -4.9571748 1.6971678 0
-5.7395239 -4.9125481 1.6673065 0
-1.9449238 -4.8840132 1.7407027 0
2.3372657 -4.9988189 1.6341687 0
5.3824072 -4.9024754 1.7165245 0
6.3243346 -4.8040676 1.7771645 0
6.4778481 -4.8144326 1.7930058 0
7.4923058 -4.8839426 1.6088498 0
7.7010703 -4.8973708 1.6265281 0
7.8947196 -4.9140954 1.6437593 0
8.0954342 -4.9348855 1.662282 0
8.3072691 -4.956501 1.682014 0
8.5273638 -4.9745297 1.7022247 0
8.7160149 -4.9900994 1.7197298 0
-2.2364902 -4.745616 1.7759823 0
-2.1059821 -4.7195158 1.74439 0
-1.9647541 -4.7283635 1.7171332 0
5.3766499 -4.7797771 1.6931694 0
5.4993901 -4.7640953 1.699849 0
5.7073922 -4.7717566 1.7180004 0
5.9066949 -4.7804055 1.736244 0
6.0945539 -4.7902861 1.7542382 0
6.2468133 -4.7979517 1.7691025 0
-19.141159 -4.4717107 1.694609 0
-18.364269 -3.8772585 1.647807 0
-18.925503 -3.71439 1.6865425 0
-17.934973 -3.7228162 1.6203785 0
-17.778191 -3.6294668 1.610656 0
-18.466671 -3.4266355 1.6580819 0
-18.345715 -3.5044947 1.6494468 0
-18.85252 -3.292515 1.6847094 0
-18.70023 -3.3313961 1.6743069 0
-19.24283 -3.0064626 1.7124785 0
-19.138582 -3.0600071 1.7052302 0
-18.802671 -3.0755935 1.6828055 0
-18.749987 -3.1354513 1.6789237 0
-19.041279 -2.9062679 1.6997085 0
-19.008854 -2.6213367 1.6991045 0
-18.964376 -2.6885018 1.6958058 0
-19.384123 -2.4635775 1.7247488 0
-19.034502 -2.5228028 1.7012953 0
-19.059383 -2.3239219 1.7038653 0
-18.962841 -2.2048368 1.6979816 0
29.805443 -0.23579304 1.7070348 0
29.881384 -0.027386393 1.709918 0
29.914055 0.38085848 1.7111878 0
17.337858 0.58124179 1.7656605 0
17.4963 0.52790737 1.7778156 0
15.859466 0.79750621 1.6508461 0
16.098581 0.7557205 1.6692975 0
16.404819 0.715159 1.6930718 0
16.695898 0.67485332 1.7156897 0
16.959606 0.62843037 1.7361495 0
-7.8283377 0.96477199 1.7404929 0
-7.753921 0.98480415 1.7287354 0
15.283887 0.87094116 1.6063095 0
15.630033 0.84128451 1.6332097 0
-7.7727447 1.014577 1.7318432 0
-2.5988724 1.3704349 1.6642345 0
11.535099 1.2907552 1.7373085 0
11.640645 1.2638106 1.748734 0
12.0298 1.2691073 1.7934792 0
9.10396 1.5602412 1.770386 0
10.359573 1.4352378 1.6072006 0
10.531666 1.4244174 1.6264426 0
10.657057 1.4060408 1.6401647 0
7.9861693 1.6715409 1.6140282 0
8.1188927 1.660326 1.632519 0
8.2889557 1.63879 1.6559045 0
8.4012213 1.6205952 1.6711909 0
8.6649313 1.6146932 1.7090976 0
29.648767 2.3039205 1.7108178 0
-19.026974 2.721324 1.6800196 0
-18.980289 2.6113126 1.6778479 0
-19.075466 2.8646193 1.6819406 0
-18.949545 2.948488 1.6729954 0
-19.590841 3.1931083 1.7127969 0
-19.049444 3.0379438 1.6787491 0
-19.602592 3.2618325 1.7129455 0
-19.529346 3.3988857 1.7068756 0
-19.285837 3.2818079 1.692019 0
-19.542248 3.4715505 1.7070291 0
-19.530144 3.6471047 1.7045131 0
-19.286482 3.710777 1.6879019 0
-19.039581 3.7672408 1.6710951 0
-19.03812 3.9109817 1.6694691 0
-18.926085 3.9930973 1.6612004 0
-18.988779 4.071959 1.6644527 0
-18.648335 4.1080055 1.6416104 0
-18.874846 4.3317008 1.6539469 0
-18.172194 4.3807549 1.6070012 0
-18.682762 4.4324665 1.6401193 0
-18.122011 4.5055776 1.6021242 0
0.14930901 4.5323243 1.6613257 0
0.28421238 4.4484348 1.6214736 0
0.045260876 4.672595 1.7128292 0
-19.288301 4.9358315 1.673876 0
-19.487103 5.0966969 1.6849557 0
-3.937732 7.1514516 1.7093881 0
-3.8602571 7.279768 1.7071323 0
-0.22803423 7.3832026 1.6511054 0
-3.8254528 7.425653 1.7134002 0
-0.42845267 7.5679169 1.7058003 0
-0.32537988 7.4474626 1.6736429 0
-8.2208147 7.6766925 1.6521076 0
-8.1066589 7.6519871 1.6369724 0
-1.0708303 11.382705 1.6772083 0
-0.88750678 11.371721 1.653303 0
-0.95173943 11.409997 1.6648734 0
-1.2492183 11.957202 1.753494 0
-2.4855196 19.571514 1.6478772 0
-2.4281108 19.872877 1.6545539 0
-23.476011 -11.465193 1.8899902 0
-22.333134 -11.456351 1.809371 0
-22.746902 -11.264404 1.8423985 0
-22.507618 -11.34707 1.8238823 0
-23.499195 -11.12163 1.8981445 0
-23.284477 -11.1772 1.8820124 0
-23.541212 -10.889483 1.9053535 0
-22.689081 -10.987147 1.8436166 0
-37.917263 -10.725393 1.9987448 0
-23.577011 -10.654417 1.9120921 0
-23.615358 -10.427246 1.9187775 0
-23.592865 -10.510166 1.9157547 0
-24.723677 -10.39459 1.9964198 0
-24.323858 -10.322717 1.9698479 0
-23.901697 -10.245273 1.9418037 0
-23.648186 -10.287682 1.9234819 0
27.246937 -8.6699371 1.819913 0
-22.346697 -8.4872751 1.8624936 0
-21.878345 -8.4002199 1.8315732 0
27.197599 -8.5463295 1.8120708 0
27.232214 -8.4548073 1.808957 0
-21.53019 -8.3541784 1.8082843 0
27.32674 -8.3369751 1.8067594 0
28.119045 -8.2645998 1.8324854 0
28.132118 -8.1154213 1.8261654 0
28.240839 -8.037117 1.8267 0
28.614597 -8.0387239 1.8407621 0
28.67692 -7.9565749 1.8395003 0
-21.891212 -5.4701161 1.8696285 0
-22.095661 -5.2280064 1.8857719 0
-21.949097 -5.3162632 1.8750584 0
-8.632061 -5.2177677 1.9341322 0
-8.5211887 -5.2146978 1.9169822 0
-1.8949684 -5.2391543 1.8684707 0
-1.6953865 -5.2259536 1.9742844 0
-1.4977928 -5.2265882 1.9349147 0
-1.3065149 -5.2322311 1.899492 0
-1.10511 -5.2245293 1.8606672 0
-0.90281641 -5.2353444 1.827481 0
-0.76350117 -5.2290907 1.9457114 0
10.745002 -5.2036319 1.9217677 0
10.909888 -5.2182355 1.9384371 0
11.085006 -5.2339082 1.9562266 0
11.273805 -5.2574663 1.9761766 0
11.447324 -5.2721138 1.9938614 0
-8.3046989 -5.1887898 1.8830477 0
-8.0948048 -5.1629162 1.8501852 0
-7.8980002 -5.1441059 1.8195505 0
-7.5213165 -5.1108909 1.9792813 0
-7.3070297 -5.0856347 1.9414425 0
-7.1027989 -5.0648971 1.9055229 0
-6.9148393 -5.0490756 1.8726687 0
-6.6974311 -5.027144 1.8346156 0
-6.5477734 -5.0108023 1.8084409 0
-1.9697652 -5.0456362 1.9926288 0
-0.6609121 -5.1829848 1.9635659 0
-0.5028196 -5.1857066 1.9380246 0
-0.29782578 -5.1724472 1.9021652 0
-0.097796723 -5.178257 1.874202 0
0.10128915 -5.1729298 1.8454776 0
0.29948637 -5.1783199 1.821835 0
0.45546246 -5.1847825 1.8051773 0
9.7012491 -5.0890656 1.815671 0
9.9403782 -5.1127405 1.8394272 0
10.140479 -5.1332703 1.8595257 0
10.302094 -5.1539912 1.8762879 0
10.46401 -5.1707582 1.8927274 0
10.632563 -5.1893301 1.909986 0
-6.2876887 -4.9709311 1.9822694 0
-6.1020565 -4.9569211 1.9460105 0
-5.9188356 -4.9391642 1.9100363 0
-5.7035198 -4.8545985 1.8640503 0
-1.9687583 -4.9030385 1.9619741 0
-0.9605096 -4.903019 1.9436649 0
6.5716124 -4.8179212 1.8023365 0
6.6887531 -4.8232698 1.8143278 0
6.8912892 -4.8366146 1.8360374 0
7.1020751 -4.8500252 1.858981 0
7.3138256 -4.8594451 1.8818121 0
7.5168653 -4.8748307 1.9050335 0
7.6986642 -4.8874674 1.9259323 0
7.8822842 -4.8990474 1.947124 0
8.0863495 -4.9192805 1.9720172 0
8.257597 -4.9342451 1.9928052 0
-3.2110927 -4.7725444 1.996681 0
-2.2372384 -4.6980472 1.9793404 0
-2.0977659 -4.694664 1.9467818 0
-1.9716799 -4.7125354 1.9222481 0
19.479591 0.19780694 1.9332434 0
-16.155155 0.20365693 1.8951327 0
-15.818287 0.2524094 1.8652573 0
18.281742 0.43192407 1.8393022 0
-15.29504 0.76871347 1.8177633 0
-7.7473311 0.97551727 1.9193993 0
-7.7668052 1.02011 1.923246 0
12.385637 1.1808683 1.8323417 0
12.602015 1.1620001 1.8568263 0
12.139949 1.2403045 1.8054307 0
12.22835 1.2064086 1.814821 0
-16.061659 1.5910971 1.8829033 0
-4.0871601 7.0705819 1.9526057 0
-3.9665329 7.1543088 1.9395858 0
-3.8778203 7.2939897 1.938392 0
-0.26068178 7.3898578 1.9271395 0
-3.8415408 7.4701123 1.9504429 0
-3.6015387 7.4951725 1.9114493 0
-3.54124 7.5104117 1.9027338 0
-0.43031794 7.5313005 1.9771712 0
-0.34248424 7.4440355 1.948508 0
-10.638471 9.769021 1.9944776 0
-0.9945792 11.189198 1.9499143 0
-1.0974557 11.38728 1.9870572 0
-0.96203196 11.436008 1.9754379 0
-19.855541 -11.533041 2.1763873 0
-37.906139 -10.578815 2.0007925 0
-14.860026 -8.7191677 2.1524296 0
18.872515 -7.4394889 2.1726055 0
18.875265 -7.2906418 2.1620457 0
19.004572 -7.1960206 2.1637716 0
18.633398 -6.907917 2.1190269 0
18.586435 -6.677002 2.1000428 0
18.60408 -6.750968 2.1062489 0
20.098 -6.6158986 2.1987519 0
18.548227 -6.5204272 2.0869939 0
19.483829 -6.4875422 2.1484582 0
18.525249 -6.3356533 2.0732045 0
18.914511 -6.3658175 2.1017098 0
-8.5188503 -5.2226057 2.1564188 0
-8.3872929 -5.2059226 2.1329155 0
-1.8976258 -5.2231283 2.0154121 0
-1.7040775 -5.2251172 2.1783226 0
-1.4957818 -5.2260003 2.133945 0
-1.2935283 -5.2297487 2.0934498 0
-1.1001259 -5.230525 2.0558116 0
-0.90060794 -5.2354918 2.0198808 0
-0.79507512 -5.2402878 2.0021331 0
-8.2588234 -5.1912894 2.1100006 0
-8.0984688 -5.1758904 2.0815921 0
-7.8999572 -5.1540389 2.0463696 0
-7.7075825 -5.1311116 2.012217 0
-7.2988224 -5.0648899 2.1826048 0
-7.0961623 -5.0438304 2.1420956 0
-6.9040437 -5.0272942 2.1039791 0
-6.6904888 -5.0079355 2.0616992 0
-1.9707966 -5.1059494 2.0861583 0
9.0984669 -5.0092316 2.0974727 0
9.2756348 -5.0307612 2.1207345 0
9.497448 -5.052527 2.1493595 0
9.7240276 -5.0748358 2.1788082 0
9.869854 -5.0886874 2.1977959 0
-6.4825902 -4.9883137 2.0206163 0
-6.2023964 -4.9787807 2.1889701 0
-6.0993257 -4.9708982 2.1664686 0
-5.9182334 -4.9551435 2.1268587 0
-5.7311072 -4.9293303 2.085336 0
-1.9682909 -4.9067163 2.1591067 0
8.3672066 -4.9456096 2.0064559 0
8.5173082 -4.9597893 2.0250757 0
8.7011938 -4.9746466 2.0476713 0
8.8984938 -4.9936619 2.0725625 0
-3.2789147 -4.7757063 2.0129776 0
-3.0466709 -4.7302704 2.1827533 0
-2.8935714 -4.7240491 2.1429241 0
-2.7896078 -4.7313437 2.1184199 0
-2.3393137 -4.7843027 2.0207231 0
-2.0491011 -4.7043905 2.1291444 0
-1.9670937 -4.7275925 2.1150904 0
-19.129341 -3.6113739 2.1653166 0
-19.117371 -3.4391737 2.1647515 0
-18.736753 -3.4739673 2.1304688 0
-19.170761 -3.3054171 2.1699178 0
-38.122997 -3.0136449 2.0928941 0
-19.018164 -3.1756618 2.156565 0
-18.953476 -3.0612273 2.1510658 0
-37.8885 -2.8705323 2.0832844 0
-18.944813 -2.9561629 2.1505599 0
-37.669483 -2.7185495 2.07444 0
-37.470028 -2.5629179 2.0663378 0
-37.259247 -2.4195614 2.0576668 0
-37.31982 -2.2918227 2.0607126 0
-37.414356 -2.1747012 2.0651734 0
-37.344364 -2.0381076 2.0300076 0
-25.641352 -1.1499348 2.1415246 0
-25.094149 -1.0427412 2.1055312 0
-24.55699 -0.92636424 2.0701911 0
-24.398003 -0.83549577 2.0597563 0
-24.33099 -0.70400143 2.0553784 0
-24.308292 -0.53121728 2.0539591 0
-24.254562 -0.22537147 2.050292 0
-24.164402 -0.35203117 2.0444214 0
-24.480141 -0.058572374 2.0650167 0
-24.372459 -0.14601292 2.0580015 0
-7.7370429 0.98855662 2.1363819 0
14.262044 0.93632424 2.0443332 0
14.553057 0.90699172 2.0775895 0
-7.7410789 1.0166676 2.137502 0
-15.368783 1.232204 2.1924431 0
-25.718243 2.7824554 2.1159024 0
-25.687897 2.9120131 2.1130638 0
-19.303633 2.9205871 2.1641226 0
-19.523132 3.1994591 2.1821549 0
-19.655422 3.3330402 2.1931765 0
-19.734489 3.4496136 2.1995568 0
-19.452391 3.4737854 2.1743848 0
-19.44455 3.6192873 2.1728847 0
-19.267994 3.6915073 2.1567845 0
-19.458334 3.910223 2.1723833 0
-0.48656896 7.6881251 2.0149248 0
-10.867437 9.7279034 2.0236206 0
-10.734447 9.7475014 2.0066288 0
-1.1869988 11.444199 2.0055447 0
-2.6448421 19.851093 2.1431611 0
-2.5083058 19.863337 2.1271973 0
-30.168726 -12.396575 2.3410766 0
-22.244066 -11.574267 2.3962154 0
-20.069883 -10.548536 2.2058818 0
18.942001 -8.6097164 2.268034 0
18.915211 -8.4813442 2.2558799 0
-20.949963 -8.3981199 2.3044591 0
18.880939 -8.3083706 2.2398145 0
18.847273 -8.1017504 2.2213385 0
19.267223 -8.05093 2.2438409 0
18.827148 -7.9392357 2.2073617 0
19.280975 -7.9063625 2.2337067 0
19.225117 -7.6923094 2.2140725 0
21.59606 -6.9590535 2.3234708 0
20.802053 -6.7731223 2.2570922 0
-1.8956188 -5.2221804 2.2201655 0
11.121663 -5.2233315 2.3656282 0
11.299952 -5.2383242 2.3894 0
-8.2468605 -5.1670737 2.3734319 0
-8.0877399 -5.1513495 2.3413451 0
-7.8877854 -5.1300807 2.3010163 0
-7.6928215 -5.1079216 2.2616889 0
-7.5094275 -5.0887389 2.2248759 0
-7.0866737 -5.0552521 2.3844655 0
-6.8963609 -5.0376339 2.3420508 0
-6.7122817 -5.0221372 2.3012571 0
-6.5109138 -5.0056481 2.2568555 0
-1.97188 -5.1491532 2.2195034 0
9.9703598 -5.1001129 2.211169 0
10.118425 -5.1165152 2.2308817 0
10.327581 -5.1381903 2.2586567 0
10.487992 -5.1562629 2.2802272 0
10.654201 -5.1731396 2.3024411 0
10.879417 -5.1952009 2.3325558 0
-6.3136134 -4.9885697 2.2134094 0
-5.8487196 -4.9258881 2.3909686 0
-5.725719 -4.9145331 2.3604212 0
-3.4438975 -4.7509842 2.2897394 0
-3.3007491 -4.7398839 2.2500939 0
-3.1131344 -4.733604 2.2712219 0
-2.9087024 -4.7271528 2.3566554 0
-19.564226 -3.7653425 2.203908 0
-16.369089 0.25384796 2.3115931 0
-16.02247 0.3051405 2.2723732 0
15.799323 0.72160631 2.2196729 0
16.044949 0.67652273 2.247714 0
-7.7608633 0.98065174 2.3655429 0
-7.7559023 1.0225476 2.3649149 0
-16.048988 1.6393669 2.2678421 0
-10.011569 2.5624225 2.3482976 0
-9.9649839 2.5874794 2.3402495 0
-10.181007 2.7434421 2.3817077 0
-19.728611 3.1592374 2.200592 0
-0.20382985 7.3812785 2.2049491 0
-0.40089446 7.5538554 2.2721639 0
-0.29959223 7.4487491 2.2337389 0
-3.4121177 10.557459 2.2198992 0
-3.3887639 10.496281 2.2093029 0
-1.1100202 11.378286 2.3869624 0
-1.0351779 11.415349 2.3825963 0
-0.93761063 11.447021 2.3744538 0
-23.117893 -12.702591 2.4658337 0
-23.114794 -12.338469 2.4690869 0
-22.807877 -12.330311 2.4408941 0
-22.40204 -11.460404 2.4118004 0
-22.279301 -11.499252 2.4001575 0
-22.656046 -11.28947 2.4366927 0
-22.49271 -11.350697 2.4211378 0
-23.49593 -11.138611 2.5149889 0
-23.073936 -11.085215 2.4767892 0
-22.882412 -11.093904 2.459157 0
-23.537775 -10.898762 2.5208666 0
-23.577675 -10.671771 2.5264153 0
-23.611391 -10.480204 2.5310655 0
-23.972702 -10.29171 2.5655916 0
-23.644627 -10.299533 2.5355814 0
-22.653925 -8.701705 2.4573588 0
-14.899083 -8.7545662 2.5689137 0
-8.6267633 -5.2032666 2.4502211 0
-8.554678 -5.2057681 2.4361115 0
11.481403 -5.2572708 2.4141192 0
-8.4582653 -5.191236 2.4163632 0
-8.3784399 -5.1828766 2.4001398 0
-7.883821 -5.1425538 2.564168 0
-7.6959672 -5.1246748 2.5218215 0
-7.5095978 -5.1029172 2.4796381 0
-7.2951035 -5.079349 2.43136 0
-6.6388855 -4.9942441 2.5889211 0
-6.4920855 -4.97927 2.5517473 0
-6.2983127 -4.9651608 2.5032923 0
-6.1101894 -4.9499578 2.4563174 0
-5.9559283 -4.9373503 2.4178774 0
-5.4163742 -4.834374 2.560605 0
-3.4762862 -4.7551279 2.5226016 0
-3.2925835 -4.7449303 2.4676158 0
-3.1286778 -4.7362509 2.4194741 0
-32.05415 -3.5331852 2.5590696 0
-31.541672 -2.1248665 2.5293269 0
-31.49229 -1.8994714 2.526505 0
-31.461615 -1.7380202 2.5247324 0
-31.37044 -1.6201489 2.5188754 0
-31.320751 -1.5142658 2.5157235 0
-23.959305 -0.89506882 2.5864472 0
-24.106695 -0.55821121 2.5992267 0
-23.971596 -0.46849483 2.5871825 0
-24.037277 -0.33638108 2.5928264 0
-15.306864 0.77071559 2.5558629 0
-23.525393 1.5580968 2.5433757 0
-9.3859253 2.1178 2.4960871 0
-9.6705494 2.3488111 2.5595274 0
-9.5431404 2.2445648 2.5310907 0
-9.8218746 2.4615097 2.5931392 0
-8.3369646 6.7822266 2.4689312 0
-8.256361 6.8896027 2.4598746 0
-8.1984539 6.9930859 2.4549923 0
-8.1923466 7.1148086 2.4610491 0
-4.2303195 7.0292363 2.5841405 0
-4.095293 7.0654826 2.5599422 0
-3.9611742 7.1568818 2.5453336 0
-8.2518578 7.3223166 2.4846032 0
-3.8824646 7.2851539 2.549499 0
-0.23173404 7.3933153 2.4758556 0
-0.4165068 7.5584636 2.5465963 0
-0.32784837 7.4524126 2.505424 0
-7.8990345 7.6730099 2.4408548 0
-6.9477739 7.6869745 2.5561233 0
-5.1673851 9.9465294 2.4426084 0
-5.1614857 10.100437 2.4578514 0
-5.1449895 10.283773 2.4744496 0
-1.2424327 11.920127 2.4887002 0
-3.5608191 13.54112 2.5862672 0
-3.2421207 13.560775 2.5416739 0
-3.1412129 13.56081 2.52701 0
-3.2019963 13.600346 2.5404658 0
-4.8896461 22.382757 2.5962076 0
-3.6324601 22.611462 2.4520061 0
-3.5570126 22.643162 2.4447222 0
-3.3152511 22.67592 2.4168642 0
-3.7191839 24.363668 2.5808823 0
-3.4713461 24.427858 2.5544906 0
-19.226831 -11.054693 2.6480093 0
-19.197256 -11.122592 2.6447587 0
-19.267317 -10.892635 2.6523716 0
-19.316687 -10.697193 2.6576941 0
-24.76561 -10.416342 2.636956 0
-20.088594 -10.524675 2.7445765 0
-19.344995 -10.490005 2.6606305 0
-24.389755 -10.360086 2.6031096 0
-19.385061 -10.337089 2.6649663 0
27.276287 -8.2571602 2.7975545 0
27.798256 -7.2911787 2.7823727 0
27.903439 -7.1161933 2.7810736 0
27.973354 -6.9852171 2.7797322 0
28.021576 -6.8965306 2.7789733 0
28.039291 -6.6936817 2.7706997 0
18.493837 -6.427691 2.7937353 0
28.121141 -6.4613523 2.7660675 0
18.503153 -6.3574972 2.7892017 0
-8.6235437 -5.2169499 2.732065 0
-8.5058918 -5.2136717 2.7058342 0
-8.3821335 -5.2009239 2.6776831 0
-8.2486706 -5.1827288 2.6470466 0
-8.0879107 -5.1692204 2.6107459 0
-7.4247746 -5.0730271 2.7896917 0
-7.279325 -5.0540485 2.7520151 0
-7.0819325 -5.0344033 2.7014525 0
-6.8849683 -5.0166984 2.6513309 0
-6.7330093 -5.0030155 2.6127763 0
-6.2028317 -4.9631062 2.7886336 0
-6.1004677 -4.9587283 2.7602499 0
-5.9166479 -4.9413791 2.7083302 0
-5.7190657 -4.9252262 2.6529906 0
-5.5734024 -4.9115558 2.6122489 0
28.809967 -4.7434535 2.7509429 0
29.644386 -3.0299888 2.7687826 0
29.579185 -2.870822 2.7604265 0
-24.939392 -1.5037944 2.6892686 0
-25.695114 -1.2268997 2.7401323 0
-24.932886 -1.1037736 2.6726675 0
-24.341658 -0.9970867 2.6203258 0
-24.151636 -0.81037617 2.6033833 0
29.875532 -0.86282647 2.7566435 0
-24.12344 -0.68186045 2.6008315 0
29.880886 -0.65999424 2.7557917 0
29.84627 -0.45371276 2.7520401 0
-24.164476 -0.21538013 2.6039109 0
29.76029 -0.20472856 2.7442453 0
29.819689 -0.30092767 2.7493579 0
-25.642185 -0.038101114 2.7342827 0
-24.304567 -0.12872781 2.6161706 0
29.820704 -0.098441184 2.7487619 0
-25.694336 0.097530425 2.7386723 0
29.889389 0.051344566 2.7539644 0
-25.706013 0.23465225 2.7394664 0
-16.186117 0.20245303 2.6754618 0
-15.831178 0.25152218 2.6273324 0
29.875145 0.20060851 2.7527606 0
29.896004 0.45777172 2.7546258 0
29.842314 0.60612178 2.7507076 0
-7.8270354 0.97912759 2.678472 0
-7.7470274 0.99887532 2.6570342 0
-7.7341666 1.0251546 2.6539927 0
-16.074652 1.655615 2.6598907 0
-9.4528656 2.1410427 2.7857561 0
-9.3901577 2.0719907 2.7694073 0
-7.0162096 2.3110232 2.7948337 0
-6.9855614 2.3012891 2.7849922 0
-6.0764446 2.3468742 2.7926636 0
-5.3917446 2.3547664 2.7959075 0
29.620493 2.317138 2.7475965 0
-25.221924 2.5710523 2.6900206 0
-9.9222031 2.5633173 2.6160395 0
-6.0468259 2.4148538 2.7879524 0
-5.3657618 2.441509 2.7951331 0
29.626226 2.4751015 2.7503278 0
-25.735535 2.7152359 2.7349234 0
-10.09409 2.724906 2.6551023 0
29.57332 2.7183104 2.7500134 0
29.629667 2.6223326 2.7528558 0
-25.763041 2.903455 2.7365921 0
-7.904531 2.964983 2.76738 0
29.595493 2.827199 2.7535799 0
-7.9123893 3.0689042 2.7748272 0
-9.0073462 3.7652686 2.7377374 0
-4.4869866 3.7652023 2.6601326 0
29.450617 3.6692379 2.7590523 0
-24.637209 3.8483641 2.6323638 0
-9.0490389 3.898973 2.7532153 0
-6.016746 3.9625158 2.6298165 0
-5.9968929 3.9817154 2.6261306 0
-4.4289088 3.8035245 2.6469367 0
29.445391 3.8263352 2.7623007 0
-9.1530848 4.0618591 2.7843411 0
-5.9565916 4.0356565 2.6202083 0
29.41894 4.0212989 2.7650301 0
-7.0752316 4.3385248 2.640882 0
-7.3907132 4.5791736 2.7390397 0
29.340162 4.5195661 2.7723026 0
-7.4872026 4.6738825 2.7706954 0
29.290195 4.6671247 2.772788 0
-10.091866 4.9355764 2.7231228 0
-3.7025409 4.9862022 2.63937 0
29.258404 4.8664665 2.7763472 0
-24.834774 5.1490741 2.6425641 0
-10.070354 5.0854383 2.7247386 0
-8.1299124 5.1097722 2.6114709 0
-3.6870193 5.0758686 2.6533656 0
-3.5500958 5.1607895 2.6316831 0
29.208706 5.0085883 2.7769876 0
-24.849415 5.2947245 2.6429491 0
-10.093035 5.2811174 2.7372446 0
-8.335207 5.3609304 2.6720366 0
-8.1702671 5.2178998 2.6269853 0
-3.5406396 5.2645559 2.6510372 0
-24.864765 5.4814138 2.6431155 0
-10.124128 5.4851427 2.751997 0
-8.3373365 5.404882 2.6752503 0
-24.899708 5.6783886 2.6449704 0
-10.159001 5.6944356 2.7679443 0
-24.925625 5.8699098 2.6460292 0
-10.205161 5.987977 2.7901592 0
-10.183032 5.8765435 2.7807655 0
-3.036346 5.8735914 2.6504147 0
-2.9529412 5.8950057 2.6340861 0
-24.954601 6.0638981 2.6472716 0
-10.223452 6.0713758 2.797574 0
-2.8241217 6.0870657 2.6466746 0
-2.7643197 6.128685 2.641844 0
-25.019848 6.3089104 2.6513534 0
-24.996584 6.215034 2.6499491 0
-25.026081 6.45927 2.6508205 0
-8.4120617 6.78932 2.7855792 0
-8.2930536 6.8975606 2.7684627 0
-25.148483 7.1545429 2.6563697 0
-8.2259092 7.0952458 2.7692139 0
-4.5217824 7.1434193 2.6680818 0
-25.171413 7.3129768 2.6571662 0
-7.4650798 7.3505554 2.6320865 0
-1.9054384 7.2458124 2.7260208 0
-25.182207 7.4114833 2.6573427 0
-7.6633482 7.4329772 2.6793518 0
-7.4173002 7.4089503 2.6271482 0
-1.6526628 7.6440372 2.7785897 0
-1.5745891 7.6137567 2.7560444 0
-2.7320588 7.868 2.7503989 0
-2.4049435 8.3400755 2.7878022 0
-0.94582498 11.452739 2.7986081 0
-2.8656094 16.16386 2.79545 0
-2.2757449 16.117594 2.7096956 0
-2.6908374 16.310116 2.7888346 0
-2.2962382 16.229567 2.7258325 0
-2.0357475 16.239201 2.6923513 0
-1.9563129 16.287132 2.6876373 0
-2.5194137 16.502119 2.7884147 0
-2.1763704 16.569756 2.7505698 0
