# .PCD v0.7 - Point Cloud Data file format
VERSION 0.7
FIELDS x y z intensity
SIZE 4 4 4 4
TYPE F F F F
COUNT 1 1 1 1
WIDTH 1405
HEIGHT 1
VIEWPOINT 0 0 0 1 0 0 0
POINTS 1405
DATA ascii
-19.466537 0.10842849 -0.10693538 0
-20.083488 0.35277966 -0.12454551 0
-19.702808 0.24638727 -0.11369134 0
-20.591656 0.54664069 -0.13932389 0
-20.395971 0.47160098 -0.13364993 0
-21.281683 0.7903161 -0.15946618 0
-21.044706 0.70074403 -0.1524774 0
-20.844469 0.62636924 -0.14661804 0
-21.790165 0.96008372 -0.17444056 0
-21.54611 0.87386751 -0.16720487 0
-22.342142 1.1408739 -0.19082575 0
-22.051357 1.0488172 -0.18219896 0
-22.558004 1.2251707 -0.197384 0
5.6730227 1.3950123 -0.12030228 0
6.5747557 1.388809 -0.11532519 0
6.6692896 1.3394142 -0.12392426 0
6.8294001 1.3022348 -0.1382658 0
7.1641665 1.3462756 -0.0045173606 0
7.7839637 1.387547 -0.044529065 0
7.8681698 1.3636057 -0.050215781 0
5.3772426 1.5658296 -0.084421702 0
5.4820046 1.4730749 -0.073005743 0
5.622395 1.4059054 -0.072896458 0
6.4896665 1.4709139 -0.10741921 0
7.7247 1.4183607 -0.04047709 0
5.3175654 1.6846062 -0.068750456 0
11.775185 1.7980611 -0.037788965 0
5.2933068 1.8940611 -0.12095139 0
11.729508 1.8311671 -0.035505272 0
5.3549128 2.0674219 -0.064962737 0
5.4300194 2.1617901 -0.072138414 0
-3.2352254 2.3466742 -0.13964792 0
5.7589335 2.3416104 -0.036350142 0
-3.2113812 2.4833035 -0.1555111 0
-3.1887195 2.5862219 -0.16753995 0
5.1390224 2.5766678 -0.10394029 0
5.2855868 2.5715148 -0.12031279 0
5.4866161 2.5676978 -0.076127425 0
5.7024436 2.5598459 -0.09802191 0
5.9127216 2.5535967 -0.11933778 0
6.1115227 2.5528126 -0.066244498 0
-3.2041111 2.6542194 -0.17789803 0
-3.1940007 2.6470184 -0.17619902 0
5.1255856 2.6897159 -0.10248755 0
-4.0512853 2.9243915 -0.0006233803 0
-2.4434247 2.9731603 -0.18254243 0
5.1570921 2.8875868 -0.10620117 0
-3.230967 3.1578314 -0.0028421781 0
-3.1672535 3.156209 -0.0014114138 0
3.3888648 3.1104078 -0.11276966 0
3.4865153 3.1881199 -0.12956877 0
4.1410117 3.1974971 -0.1092165 0
4.3011956 3.1793575 -0.070331246 0
4.4986711 3.1625485 -0.093985423 0
4.6919127 3.1454124 -0.11720692 0
4.8833008 3.1359596 -0.093941666 0
5.1259303 3.0869048 -0.10273704 0
-2.8278437 3.2408085 -0.0065552481 0
-2.6985428 3.2516108 -0.0067195296 0
-2.5091188 3.2240772 -0.0018608461 0
-2.1183805 3.3089335 -0.013841106 0
1.5852126 3.3987904 -0.039277431 0
1.7329524 3.3919716 -0.10140459 0
1.9080853 3.3816323 -0.10528298 0
2.0909662 3.3667736 -0.081494235 0
2.2983353 3.3422644 -0.10120489 0
2.5138366 3.3305795 -0.11421886 0
2.6946764 3.3125093 -0.083041511 0
2.9057558 3.2968519 -0.098233849 0
3.1057823 3.2805822 -0.1296538 0
3.306504 3.2623456 -0.083772801 0
3.4968069 3.2461834 -0.076765999 0
3.698802 3.2299607 -0.10430403 0
3.8878608 3.2145457 -0.12899509 0
4.0724006 3.2054892 -0.10038675 0
-6.6943774 3.4908195 -0.15858476 0
-2.106643 3.4895065 -0.039809827 0
-0.82694876 3.5905905 -0.09788169 0
-0.69631988 3.5834863 -0.10469756 0
-0.49387583 3.564801 -0.11533391 0
-0.29014978 3.5517097 -0.071253449 0
-0.099454083 3.5360067 -0.081366025 0
0.099223077 3.5203431 -0.098213702 0
0.29766697 3.5073724 -0.11913127 0
0.49310452 3.4879851 -0.10822912 0
0.69875574 3.4723234 -0.057090949 0
0.89974016 3.4653366 -0.082262844 0
1.0972055 3.4439397 -0.10534327 0
1.3098797 3.4302008 -0.10654369 0
1.4824889 3.4140329 -0.093719371 0
1.6354046 3.403857 -0.10152055 0
-6.6312394 3.7031219 -0.17297637 0
-6.2820807 3.7845464 -0.16505343 0
-6.0947824 3.7523663 -0.15462995 0
-5.8841605 3.7167845 -0.14308552 0
-5.6814728 3.6810036 -0.13197009 0
-5.4920211 3.649688 -0.1218473 0
-5.2864199 3.6169169 -0.11120588 0
-5.1972704 3.6260931 -0.10889012 0
-2.0725501 3.6769516 -0.06767717 0
-1.8919628 3.6871214 -0.072494656 0
-1.6960446 3.6712532 -0.074727863 0
-1.50203 3.656826 -0.078273259 0
-1.3006916 3.6411653 -0.08311943 0
-1.0993388 3.6206737 -0.088570319 0
-0.93104142 3.6084163 -0.095060885 0
-6.6141639 3.8317757 -0.18300065 0
-6.4939384 3.8291416 -0.17771773 0
37.992447 4.0696735 -0.14384751 0
38.038601 4.1995502 -0.14331894 0
38.098351 4.3389721 -0.14287873 0
-15.727578 5.1168895 -0.1643445 0
-15.667786 5.2805438 -0.16999049 0
36.840275 5.7499208 -0.10440447 0
37.151623 5.6671877 -0.11080697 0
-15.093904 5.9663944 -0.19010136 0
-15.084066 6.0842104 -0.19599776 0
26.704395 -9.0305805 0.16411306 0
26.736261 -8.8821239 0.15878618 0
26.727869 -8.6816635 0.15277168 0
26.701061 -8.4654121 0.14693218 0
26.697815 -8.2654076 0.14123443 0
26.67783 -8.0595303 0.13566953 0
26.636322 -7.8469105 0.13046405 0
26.6555 -7.7072024 0.12620461 0
26.654774 -7.552433 0.12199596 0
5.5523334 -6.8255358 0.054213174 0
5.579442 -6.7141404 0.049429439 0
5.6160841 -6.6420631 0.044493191 0
3.7749515 -6.5186315 0.052466471 0
3.8516271 -6.5519509 0.04394424 0
5.5549979 -6.4924717 0.047578201 0
5.6128731 -6.474318 0.041655265 0
5.5968909 -6.3838811 0.041492622 0
5.637207 -6.3436036 0.036846865 0
6.8978214 -6.2434955 0.12733878 0
6.7375259 -6.0493197 0.13333531 0
6.8144488 -6.0768619 0.12829894 0
12.427872 -6.0979853 0.031002577 0
28.015059 -5.0572386 0.041266881 0
4.4215059 -4.8240471 0.1256676 0
6.541996 -4.8475318 0.11055294 0
7.3102226 -4.8116117 0.053247746 0
3.1057556 -4.6552 0.1005234 0
4.415904 -4.6993618 0.12387341 0
4.8921752 -4.620842 0.076994643 0
6.5294085 -4.7000766 0.10721903 0
7.340261 -4.7062092 0.048231665 0
7.9969778 -4.7134047 0.0010647894 0
8.0016193 -4.7891812 0.002646558 0
8.6183882 -4.6582537 0.17223251 0
27.722506 -4.6579323 0.039392956 0
3.1263328 -4.4781766 0.10555398 0
3.2600234 -4.4883976 0.10815959 0
4.4299498 -4.4822297 0.11852192 0
4.6963043 -4.5525112 0.094421744 0
4.8930125 -4.5937181 0.076442957 0
5.3073158 -4.4860067 0.11411746 0
5.4501987 -4.4179931 0.073992148 0
5.7277532 -4.4595051 0.15987645 0
6.5207262 -4.5259476 0.10293211 0
7.3237672 -4.5049124 0.044112764 0
8.6155014 -4.5056992 0.16717082 0
3.3239012 -4.3501344 0.10085472 0
3.5239508 -4.3640571 0.092647016 0
3.6141281 -4.3540673 0.15289213 0
4.4139619 -4.3952379 0.1184874 0
4.6272984 -4.2537217 0.095793776 0
5.3974881 -4.399107 0.18299319 0
5.4849238 -4.3607774 0.09599483 0
5.7325029 -4.3855324 0.1571902 0
7.2928061 -4.3825612 0.043025326 0
7.8500495 -4.329021 0.19954976 0
8.604497 -4.333509 0.16195339 0
27.181454 -4.3300157 0.043233816 0
27.221863 -4.2353635 0.041065514 0
2.4138567 -4.0974369 0.094776407 0
5.4615808 -4.1404352 0.015635453 0
8.2028236 -4.1069379 0.17436682 0
27.087528 -4.0736799 0.040858511 0
-0.075407304 -3.8248849 0.03440607 0
0.09713617 -3.8442328 0.014226035 0
0.2031974 -3.8630862 0.00059873686 0
0.55851394 -3.8534768 0.056244407 0
0.69722492 -3.8915915 0.036160529 0
0.88414031 -3.9023995 0.012025097 0
1.1411037 -3.8538897 0.071013249 0
1.2617133 -3.9001725 0.052498788 0
1.5143255 -3.865288 0.061676312 0
1.6418209 -3.8360331 0.0066965674 0
1.9526566 -3.8312278 0.11204854 0
2.0876851 -3.8553009 0.089806363 0
2.2746613 -3.8630934 0.05743875 0
2.4828339 -3.8752065 0.13184951 0
17.788792 -3.9437182 0.19894667 0
17.800253 -3.8522274 0.19677944 0
27.115372 -3.9386849 0.038395278 0
27.312601 -3.8652556 0.033694658 0
-1.9318106 -3.643429 0.19338492 0
-1.6192192 -3.6538098 0.10885148 0
-1.2050104 -3.6083961 0.059151258 0
-1.1098936 -3.7003162 0.041351557 0
-0.8858462 -3.6967418 0.062923692 0
-0.70464849 -3.6779399 0.080395848 0
-0.49701011 -3.6341655 0.141605 0
-0.29735911 -3.654012 0.12102876 0
-0.11686315 -3.6840782 0.12267822 0
0.11383029 -3.679173 0.13861729 0
0.29831052 -3.6984813 0.14266001 0
0.48217502 -3.7279921 0.12826206 0
0.69578946 -3.7347984 0.13384993 0
0.90741789 -3.7493536 0.14356774 0
1.078504 -3.7667077 0.14569589 0
1.3054969 -3.7720828 0.10835821 0
1.580374 -3.7947297 0.13179028 0
1.7012014 -3.775605 0.13913143 0
1.8440158 -3.7651944 0.12332366 0
2.356756 -3.7236962 0.010087013 0
17.794088 -3.7574635 0.19489925 0
17.808784 -3.6641912 0.19272795 0
26.951698 -3.6305623 0.036436353 0
27.139448 -3.7509751 0.034973331 0
-3.6046166 -3.4077885 0.15110984 0
-2.8985209 -3.4156592 0.14200185 0
-2.7305264 -3.4459364 0.13577178 0
-2.4968612 -3.4114294 0.1343129 0
-2.2942853 -3.4602056 0.12362658 0
-2.0983019 -3.5179853 0.11098298 0
-1.9117495 -3.5270209 0.10322881 0
-1.6933248 -3.523911 0.14185026 0
-1.4918728 -3.549762 0.13269621 0
-1.3006079 -3.5656292 0.11726521 0
-1.1033831 -3.5771332 0.14999148 0
-0.95618886 -3.5919559 0.13779177 0
1.9883435 -3.4624033 0.11448281 0
3.6799402 -3.4614544 0.11648878 0
5.4302206 -3.5627041 0.082743771 0
10.520404 -3.5427074 0.049033314 0
17.845264 -3.5745075 0.1902855 0
18.689884 -3.5172439 0.17441237 0
19.047026 -3.4866927 0.16782019 0
26.856457 -3.475049 0.035945557 0
-4.2869959 -3.2197483 0.1688129 0
-4.112258 -3.2363596 0.16764799 0
-3.9080889 -3.2694252 0.16472913 0
-3.7110443 -3.3101027 0.16051765 0
-3.505687 -3.3222523 0.15822001 0
-3.3070157 -3.3179104 0.15699348 0
-3.0986955 -3.3627381 0.15028828 0
-2.992914 -3.3975163 0.14538312 0
0.37001237 -3.2812455 0.049276736 0
27.01527 -3.3068964 0.031192631 0
-5.51162 -3.0296886 0.17364837 0
-5.2998815 -3.0553143 0.17426094 0
-5.0946164 -3.0779333 0.17473418 0
-4.9082603 -3.1173074 0.17357324 0
-4.7094045 -3.1418147 0.17310224 0
-4.4950681 -3.1703231 0.17203337 0
-4.3526702 -3.1824894 0.17160933 0
-2.9457936 -3.0879803 0.024005529 0
-1.2305034 -3.1396692 0.1203143 0
27.096855 -3.1314964 0.0277429 0
27.228939 -3.0000284 0.024074344 0
-7.0009193 -2.9040401 0.15882689 0
-6.7088971 -2.8418896 0.16708326 0
-6.4997535 -2.8682077 0.16914928 0
-6.3009892 -2.905844 0.17023909 0
-6.0872393 -2.9317458 0.17199066 0
-5.91013 -2.9679768 0.17247182 0
-5.6944838 -2.9813931 0.17450511 0
-2.7899752 -2.9337838 0.18822666 0
27.537512 -2.9381733 0.01837275 0
27.686228 -2.8636878 0.015163367 0
28.014599 -2.8014915 0.0094989138 0
-7.8846598 -2.629847 0.15460426 0
-7.712502 -2.6831074 0.15590326 0
-7.482265 -2.6794395 0.16066423 0
-7.3063755 -2.7084804 0.16276717 0
-7.1108985 -2.7551277 0.16424802 0
-6.9271779 -2.7867863 0.16604801 0
-6.7996225 -2.7950153 0.167916 0
-4.3919115 -2.7654624 0.019287677 0
27.752928 -2.6795945 0.012495379 0
-8.4225979 -2.4894845 0.14869209 0
-8.2809954 -2.4976687 0.15148395 0
-8.0864048 -2.5355606 0.15420118 0
-7.9819841 -2.5837021 0.15447937 0
27.471411 -2.5516109 0.015782204 0
25.961813 -0.62854546 0.027793271 0
25.758343 -0.49109042 0.030415308 0
20.224625 -0.2441569 0.11655208 0
20.874929 -0.00097986241 0.10605939 0
22.144371 -0.11851424 0.086252555 0
17.600012 0.11553958 0.15740192 0
18.511885 0.1844566 0.1431098 0
20.914837 0.070966825 0.10540222 0
17.514408 0.35351369 0.15891658 0
17.640404 0.29947615 0.15686972 0
20.868097 0.28413188 0.10618518 0
17.250467 0.49508911 0.16353145 0
17.181454 0.63882202 0.16498306 0
17.212831 0.72930515 0.16478863 0
17.289803 0.85104764 0.16404536 0
20.772026 1.1311547 0.11023356 0
6.5864058 1.3923277 0.03375164 0
6.659915 1.3500513 0.028530192 0
6.8512931 1.307988 0.01561529 0
20.194637 1.340839 0.12059364 0
20.5492 1.2595919 0.1144091 0
20.745554 1.2007596 0.11099055 0
-11.112638 1.5194287 0.075186767 0
-10.96858 1.5592735 0.078586236 0
5.4669375 1.5524143 0.1094402 0
5.6745296 1.5046604 0.095095471 0
6.0038714 1.4498699 0.072750613 0
6.3754959 1.567945 0.049550042 0
6.4947162 1.5090455 0.077204756 0
6.6916676 1.5380775 0.17688715 0
6.830514 1.4765512 0.16995178 0
7.7386332 1.521735 0.13136774 0
7.8831682 1.4554169 0.12425915 0
20.298147 1.4560107 0.11964627 0
-11.054897 1.7321209 0.072608978 0
-10.978094 1.6176817 0.077140324 0
5.3473554 1.7197065 0.093396977 0
5.4080052 1.6031963 0.11404386 0
6.3383646 1.6016443 0.052390259 0
6.4702125 1.6319474 0.18809663 0
10.555234 1.7518157 0.013597362 0
10.635754 1.6942577 0.0095320605 0
21.299732 1.6374874 0.10487759 0
-11.128487 1.8451785 0.068032987 0
5.3255138 1.8983299 0.061860569 0
10.530796 1.8411682 0.01566804 0
21.213551 1.8882104 0.10811853 0
5.3680243 2.0204728 0.081308901 0
5.4548187 2.1144071 0.11899275 0
21.097391 2.055028 0.11139981 0
26.574764 2.1846144 0.024439776 0
25.137049 2.3256099 0.048613276 0
25.966457 2.2286129 0.034512408 0
-3.0821588 2.5745552 0.06586048 0
5.1409311 2.5881867 0.086006723 0
5.2876945 2.580879 0.074062407 0
5.4805231 2.5701451 0.12588133 0
5.6914911 2.5605447 0.11103456 0
5.8984075 2.5528398 0.096487723 0
6.0991225 2.5487673 0.082622975 0
6.2799282 2.5429671 0.070141204 0
-3.665657 2.7599373 0.028630648 0
-3.5794592 2.6697948 0.040484756 0
-3.0460174 2.6929469 0.068650618 0
-2.987937 2.7589362 0.12945639 0
5.1253114 2.7002318 0.089185268 0
-8.0170498 2.8960171 0.11357285 0
-7.9924479 2.947226 0.11173568 0
-3.6582413 2.8772998 0.050583053 0
-3.0157077 2.9304554 0.12906118 0
-2.978699 2.8376336 0.13201995 0
3.1993859 2.9167056 0.11237705 0
5.1553402 2.8986871 0.090067737 0
-7.9665074 3.082634 0.10575846 0
-4.0257063 3.011559 0.17100401 0
-3.243459 3.1790817 0.15672244 0
-3.0771604 3.1592298 0.079117104 0
-2.8780208 3.1413698 0.077973709 0
-2.2365842 3.1945341 0.030357707 0
-2.1578398 3.1920195 0.063972257 0
2.1979725 3.1759653 0.13830657 0
4.1041403 3.1934192 0.011267628 0
4.3072381 3.1915534 0.10626287 0
4.5035515 3.174052 0.087802887 0
4.702148 3.152379 0.12729616 0
4.8961511 3.146579 0.11596742 0
5.124516 3.0988729 0.096241184 0
-3.2313244 3.2123137 0.153488 0
-3.1745338 3.2067671 0.15365511 0
-2.8212085 3.2565923 0.14541776 0
-2.6982822 3.262629 0.14312419 0
-2.49225 3.2343013 0.12838517 0
-2.3209567 3.2080522 0.085501596 0
-2.1116283 3.2818012 0.11540204 0
0.50340647 3.3379357 0.1819263 0
1.0808089 3.3586993 0.1884813 0
1.752064 3.3950689 0.10282456 0
1.8895651 3.3841379 0.10511639 0
2.0969059 3.3654342 0.10239148 0
2.2950861 3.3382761 0.074259385 0
2.4924891 3.3304803 0.10702966 0
2.6937313 3.3141882 0.11924177 0
2.8989382 3.2973487 0.096901111 0
3.099767 3.2833169 0.075533271 0
3.3003018 3.2663245 0.096014962 0
3.4925716 3.2509439 0.13529822 0
3.6971104 3.2346435 0.11054127 0
3.9021144 3.2176704 0.086004399 0
4.0977774 3.2077501 0.12617403 0
-7.2716641 3.538667 0.094280086 0
-5.010541 3.5789704 0.11992874 0
-4.9121971 3.5551877 0.12242754 0
-4.69942 3.5399213 0.1247343 0
-4.5407619 3.5182898 0.12718207 0
-2.1011808 3.5077858 0.11332339 0
-1.2735028 3.5281358 0.16047429 0
-0.83571368 3.5976851 0.046239015 0
-0.67785299 3.5930586 0.071204349 0
-0.50093901 3.5773652 0.098777145 0
-0.31002003 3.5635443 0.11564896 0
-0.10272247 3.5322576 0.11129268 0
0.098242164 3.5260935 0.092754103 0
0.30289239 3.5134761 0.10595164 0
0.49335259 3.4796777 0.098032683 0
0.70047462 3.463141 0.11252238 0
0.90788651 3.4618678 0.094753355 0
1.0995661 3.4447622 0.10102211 0
1.2905211 3.4327593 0.097398944 0
1.5012724 3.4194109 0.090979435 0
1.6776661 3.4068279 0.10213951 0
-7.6652937 3.602911 0.083588086 0
-7.2416677 3.7021954 0.0848343 0
-6.6222372 3.7656033 0.089903541 0
-6.5801854 3.7436922 0.09194842 0
-6.084013 3.7690141 0.096105583 0
-5.8683128 3.7296581 0.10123002 0
-5.6710649 3.6968813 0.10557649 0
-5.4875598 3.6690114 0.10933188 0
-5.3108277 3.640033 0.11301816 0
-5.1367345 3.6099937 0.11663723 0
-2.0708294 3.6859751 0.13425319 0
-1.8986102 3.6953804 0.12590288 0
-1.6973588 3.6800225 0.12048087 0
-1.4968451 3.6621892 0.11007153 0
-1.2963054 3.6465778 0.094421275 0
-1.0983065 3.6294785 0.092461117 0
-0.91722709 3.6136198 0.087180175 0
-0.75267994 3.6025598 0.11589689 0
-7.40868 3.9347575 0.06753245 0
-7.2792625 3.8941391 0.072062977 0
-7.1891165 3.9390457 0.07054504 0
-6.6073384 3.8191617 0.08646398 0
-6.5105567 3.8441985 0.085943103 0
-6.2874351 3.8119919 0.090809822 0
-15.126343 6.270443 0.19681406 0
-14.98917 6.2132106 0.19902603 0
-24.612185 6.5537829 0.18270069 0
-23.951891 6.5563345 0.18405622 0
-15.201162 6.5566397 0.18391168 0
-15.156605 6.4395876 0.18910791 0
-15.221842 6.6868916 0.17796652 0
-24.589785 6.8288093 0.17392021 0
-15.303029 6.9199362 0.16728309 0
-25.322893 7.1232009 0.16325089 0
-15.266607 7.1321526 0.15687537 0
-27.903177 7.5149875 0.14628509 0
24.462908 -12.426676 0.3459484 0
20.234411 -8.5204725 0.28878608 0
20.303596 -8.340991 0.28035673 0
17.077579 -8.1138449 0.34885621 0
17.132162 -7.9264584 0.33961579 0
17.207535 -7.8173947 0.33345714 0
19.966839 -7.8036232 0.26843265 0
17.316338 -7.7261214 0.32709789 0
17.506948 -7.6726031 0.32034585 0
20.348024 -7.7596006 0.25836819 0
20.418783 -7.6628046 0.25341153 0
21.303545 -7.6721992 0.23417327 0
17.488194 -7.5173631 0.31467119 0
20.386784 -7.5710154 0.25093353 0
20.509382 -7.4572058 0.24438083 0
21.040718 -7.4952917 0.2339056 0
17.106821 -7.2849951 0.31464782 0
20.813864 -7.328362 0.23322436 0
17.663658 -7.1372623 0.29626322 0
5.5572801 -6.8123403 0.25495335 0
18.883677 -6.930243 0.26168895 0
5.5662985 -6.6928458 0.24968654 0
5.6046395 -6.6802883 0.24604593 0
13.864944 -6.7047524 0.37033707 0
5.5660763 -6.4697294 0.24121927 0
5.6766663 -6.421546 0.23040345 0
5.6352782 -6.3715763 0.23192872 0
12.411013 -6.1129675 0.38211876 0
7.8451762 -5.9765091 0.2659581 0
4.4170427 -4.8227935 0.27410787 0
6.5396681 -4.8500118 0.2903381 0
7.3221455 -4.8066306 0.24527989 0
11.553903 -4.964437 0.35571298 0
3.1264424 -4.6875067 0.30071267 0
4.4126625 -4.7013416 0.27009842 0
4.933557 -4.6272144 0.2262172 0
5.025352 -4.6364856 0.21935877 0
6.544642 -4.7176871 0.28434002 0
6.9604774 -4.6959915 0.26037371 0
7.3376689 -4.7246895 0.24126053 0
17.738441 -4.6697297 0.21730244 0
3.1357348 -4.4971685 0.3115918 0
3.2817137 -4.4921117 0.29321805 0
3.5056098 -4.4037023 0.26992774 0
4.3990073 -4.4762506 0.26317808 0
4.4789429 -4.4485278 0.31277892 0
4.9270358 -4.5238481 0.34526765 0
5.0155602 -4.4974933 0.30746973 0
5.327158 -4.4805202 0.34355608 0
5.4501905 -4.4164495 0.33334923 0
5.7532158 -4.4691644 0.31817931 0
6.5269837 -4.5204825 0.27682763 0
6.9271097 -4.4368949 0.25183392 0
7.295784 -4.4932485 0.23447478 0
7.4501896 -4.4188619 0.22347924 0
17.746798 -4.5138664 0.21324874 0
3.3411036 -4.3636832 0.28375959 0
3.5186765 -4.3749676 0.27857032 0
4.5013933 -4.3792953 0.32044002 0
4.6087093 -4.3544054 0.31166339 0
5.0496216 -4.3966179 0.35612714 0
5.4810681 -4.3668666 0.32926407 0
5.7731872 -4.3904171 0.31354076 0
6.9164772 -4.3943715 0.25072074 0
7.2869554 -4.369266 0.23020031 0
7.5185814 -4.3582196 0.21761011 0
7.689528 -4.3397613 0.20813487 0
7.8189511 -4.3478856 0.20180611 0
10.341535 -4.2222733 0.3555668 0
17.766411 -4.3248706 0.20831878 0
2.3812792 -4.035553 0.20557953 0
10.543109 -4.0203266 0.34365728 0
17.780409 -4.1032581 0.20287111 0
1.5062329 -3.842206 0.29301828 0
1.95386 -3.8269868 0.30096641 0
2.0980515 -3.8494585 0.28810215 0
2.3006585 -3.8830068 0.28369057 0
2.4775665 -3.8645973 0.31780112 0
-1.6237872 -3.6527801 0.32228342 0
-0.84249449 -3.603616 0.24842495 0
-0.69098252 -3.6096625 0.27289104 0
-0.49883011 -3.6267145 0.31079459 0
-0.30000082 -3.6485515 0.29217032 0
-0.089061387 -3.6531961 0.29881245 0
0.093933508 -3.6692324 0.30035421 0
0.29839957 -3.6888282 0.30769897 0
0.49834496 -3.7108688 0.28720027 0
0.70276964 -3.7235415 0.30141184 0
0.89153278 -3.7383194 0.31197277 0
1.0993754 -3.7559009 0.30363724 0
1.2980616 -3.765286 0.27927226 0
1.5563765 -3.7918317 0.32027274 0
1.6962442 -3.7737293 0.32804736 0
1.845934 -3.7718551 0.31194469 0
-3.0771799 -3.4130051 0.35459128 0
-2.8995309 -3.4262633 0.30538246 0
-2.7240834 -3.4436309 0.2985293 0
-2.4782951 -3.4164565 0.26792893 0
-2.2996166 -3.4668276 0.28037673 0
-2.1033425 -3.5186112 0.26811597 0
-1.9037343 -3.5368993 0.30112252 0
-1.6974776 -3.5334537 0.32590517 0
-1.4771881 -3.5411923 0.3210361 0
-1.298172 -3.5581872 0.30378166 0
-1.1001896 -3.5742362 0.28656057 0
-0.90007794 -3.5895696 0.3038331 0
-0.74562174 -3.5938218 0.36495975 0
3.6862538 -3.4648204 0.33899516 0
10.566954 -3.5637941 0.32748157 0
-4.2608762 -3.2131643 0.30373946 0
-4.1027231 -3.2512372 0.29821002 0
-3.8949068 -3.2819717 0.29191023 0
-3.7098732 -3.3210323 0.28496626 0
-3.4841793 -3.3395061 0.31463611 0
-3.2999225 -3.3418403 0.32892928 0
-3.1237772 -3.3709161 0.2871238 0
-2.6195321 -3.3977425 0.35578424 0
-2.5348415 -3.3934598 0.35156703 0
1.9334586 -3.371789 0.25497246 0
-5.6450109 -3.0042133 0.33406562 0
-5.5077748 -3.0494869 0.33035845 0
-5.2764454 -3.0655251 0.32705441 0
-5.1009755 -3.092047 0.32354239 0
-4.8864603 -3.1264064 0.31879666 0
-4.6976252 -3.1564975 0.31435561 0
-4.4956298 -3.1820471 0.30973288 0
-4.3531075 -3.1941757 0.30661091 0
-2.8658814 -3.0091407 0.39330855 0
-1.2395245 -3.145973 0.20451064 0
-6.8956966 -2.8564329 0.34949237 0
-6.7146592 -2.882833 0.34742409 0
-6.4944811 -2.9148459 0.34472817 0
-6.295476 -2.9403262 0.34226787 0
-6.0851984 -2.9666941 0.33952147 0
-5.909019 -2.9901075 0.33704552 0
-5.7429161 -2.9884109 0.33574688 0
-4.7551947 -2.9759815 0.32590508 0
-2.7941563 -2.948323 0.28973368 0
-8.0114193 -2.6013288 0.36284477 0
-7.9059243 -2.6155043 0.36213729 0
-7.6838937 -2.6504276 0.3604075 0
-7.4789333 -2.7181511 0.35739574 0
-7.2920594 -2.7568882 0.35527608 0
-7.1854692 -2.7762811 0.35411188 0
-6.9109597 -2.7891953 0.35235414 0
-4.4009733 -2.7599833 0.20286088 0
-8.4214792 -2.4974473 0.36693898 0
-8.277914 -2.5214999 0.36592209 0
-8.1329479 -2.5751808 0.36394608 0
-6.1912165 -2.458523 0.36271375 0
-4.8364248 -1.4367558 0.36352393 0
-4.7925754 -1.4152397 0.26928446 0
-4.8103352 -1.2951277 0.32950908 0
-4.7867527 -1.3406999 0.30368069 0
-4.8191957 -1.1508106 0.27754697 0
-27.702785 -0.67548442 0.2650893 0
-16.386293 -0.69616431 0.33327264 0
-26.866072 -0.51388127 0.27048206 0
-17.229136 -0.48524097 0.3289021 0
-16.974817 -0.54279172 0.330282 0
-16.742905 -0.59627128 0.33151034 0
-14.919701 -0.58270931 0.34256211 0
-2.0569544 -0.45016357 0.36464864 0
-27.718357 -0.38372791 0.26547414 0
-2.014133 -0.38385415 0.36731458 0
-1.9734272 -0.28460017 0.37023836 0
-27.675877 -0.098494217 0.26586443 0
-2.0206194 -0.12826303 0.37087244 0
-1.97418 -0.17302808 0.37172917 0
-27.638489 0.055131879 0.26601338 0
-26.772945 0.1933966 0.27114856 0
-20.633585 0.58474475 0.30775884 0
-20.475515 0.50800669 0.30899072 0
-20.329632 0.43416622 0.31011036 0
-21.21883 0.74723649 0.30354962 0
-20.933966 0.66181123 0.30564025 0
-21.390795 0.83414066 0.3020969 0
-20.188942 0.85760188 0.30917832 0
-22.165329 1.0931824 0.29601625 0
-21.93428 1.0027963 0.29793563 0
-22.926048 1.3721696 0.28925741 0
-21.76302 1.3875201 0.29598498 0
-10.745288 1.3938452 0.35818848 0
-21.788141 1.4645641 0.29521918 0
-11.228941 1.4946934 0.3541548 0
-11.018398 1.5047519 0.35507351 0
-10.824764 1.5194252 0.3558166 0
-10.762121 1.5530196 0.35557523 0
5.4661932 1.5650473 0.30056912 0
5.6670632 1.5947092 0.36616257 0
5.8525791 1.5800961 0.21446872 0
-24.046808 1.7783809 0.27936643 0
-23.703239 1.6754208 0.28226745 0
-11.018467 1.7192423 0.35125709 0
-10.996018 1.6628306 0.35238335 0
5.4557767 1.7113825 0.31008816 0
5.6852126 1.7240676 0.29716751 0
5.8736482 1.6242685 0.26359212 0
6.1037216 1.6733339 0.20509586 0
-24.554119 1.9972521 0.27437693 0
-24.379381 1.8907613 0.27640903 0
-23.291645 1.9766006 0.28179806 0
-11.046007 1.8321667 0.34905666 0
5.4400568 1.8914212 0.26507863 0
5.7750821 1.838217 0.22310832 0
5.8051882 1.8033067 0.36936325 0
6.9869418 1.8669697 0.34750798 0
7.0873284 1.8308009 0.34482032 0
7.7890053 1.9121852 0.33351123 0
7.9943619 1.9209123 0.32988143 0
8.0775671 1.8860034 0.32755995 0
8.3898735 1.9020581 0.32217643 0
11.584641 1.9691088 0.26722223 0
11.735858 1.8916796 0.26345158 0
5.5110321 2.055002 0.2404073 0
10.384712 2.1913691 0.29199958 0
10.512007 2.1639438 0.28919104 0
11.387673 2.0924747 0.27261129 0
11.45697 2.0648844 0.27096486 0
-25.192938 2.2187054 0.26847482 0
10.38115 2.265312 0.29355797 0
10.409429 2.3438804 0.29467782 0
11.458788 2.2450333 0.27396572 0
-24.864096 2.5425229 0.26682076 0
-3.0827074 2.5909767 0.23015714 0
5.1330786 2.5946882 0.27430129 0
5.2989874 2.5861461 0.26574209 0
5.4951701 2.5755794 0.25573057 0
5.7052579 2.5676646 0.30295068 0
5.8955402 2.5618048 0.31459883 0
6.0885501 2.554734 0.30736464 0
6.2990823 2.5501034 0.29973313 0
6.5167089 2.5412567 0.29194209 0
6.722199 2.5326998 0.37318981 0
6.9060693 2.52439 0.36880603 0
7.1006608 2.5207789 0.36440805 0
-3.0327287 2.6730638 0.27010474 0
3.0625546 2.7930136 0.33712301 0
5.1141658 2.7063582 0.27898338 0
-8.2912292 2.8910527 0.32760406 0
-8.0384569 2.9029164 0.32710907 0
-7.9831772 2.979367 0.32409671 0
-3.052052 2.8943653 0.29019764 0
0.62963712 2.9893045 0.39915586 0
4.2137814 2.8126302 0.33044428 0
5.1428943 2.9045625 0.28427446 0
-26.335457 3.1613176 0.25068587 0
-7.9664431 3.0730119 0.32035893 0
-7.7694435 3.1949983 0.31494617 0
-3.0587535 3.1967435 0.26662892 0
-2.8906121 3.1792741 0.26360127 0
-2.1623178 3.1946003 0.2809523 0
0.69680572 3.1308916 0.36671582 0
4.1338148 3.1963005 0.23881027 0
4.3033862 3.1870306 0.28335342 0
4.498538 3.1696563 0.27001691 0
4.6958261 3.1576951 0.30285025 0
4.9081407 3.1444187 0.30576169 0
5.1209812 3.0992045 0.29261383 0
-26.272249 3.2474697 0.24977556 0
-7.7469649 3.2179506 0.31390342 0
-3.6244309 3.392482 0.39227447 0
-3.495245 3.3743732 0.38809064 0
-3.292011 3.2930841 0.33061612 0
-3.1101243 3.2676897 0.32523239 0
-2.8803847 3.2820895 0.33010992 0
-2.7043402 3.2632942 0.30563241 0
-2.5037606 3.2354512 0.29971513 0
-2.2982187 3.2098641 0.29292473 0
-2.1153855 3.2923577 0.28265509 0
-0.083221018 3.273361 0.32473797 0
0.68693841 3.3087025 0.33800033 0
0.9433887 3.353991 0.28463447 0
1.0625256 3.3260231 0.27147222 0
1.5658237 3.3993537 0.29437366 0
1.7071691 3.3929882 0.28865185 0
1.8999425 3.3837523 0.30013099 0
2.1005561 3.3659279 0.27853581 0
2.3011549 3.3454304 0.29986179 0
2.4973471 3.3365686 0.32504511 0
2.6943142 3.3183632 0.30989942 0
2.8961811 3.3033695 0.29115513 0
3.0987723 3.2868598 0.27254814 0
3.2961442 3.2710226 0.27381238 0
3.4956188 3.2495403 0.33467087 0
3.6976857 3.2370808 0.32639447 0
3.8968909 3.2219443 0.31205511 0
4.0812411 3.2084782 0.32067251 0
-7.6673985 3.4963875 0.30093348 0
-5.0820875 3.5950694 0.2755239 0
-4.9253731 3.5718811 0.27488172 0
-4.699286 3.5356758 0.27397007 0
-4.4950705 3.5067291 0.27277088 0
-4.3590093 3.4844494 0.27208358 0
-2.1040382 3.4979889 0.25959539 0
-0.90745175 3.5894394 0.39231247 0
-0.67666709 3.5950108 0.30769384 0
-0.49421743 3.5776508 0.31100747 0
-0.29820865 3.5662117 0.2921966 0
-0.089682668 3.5414832 0.29856628 0
0.099944793 3.5305927 0.29531714 0
0.29632771 3.5098462 0.3052431 0
0.50057214 3.4758787 0.29289708 0
0.71377927 3.4284637 0.25443193 0
0.89306724 3.4458048 0.29004264 0
1.1003987 3.440532 0.3095026 0
1.3051811 3.430917 0.29264978 0
1.4984566 3.4183366 0.30162641 0
1.6764295 3.4101574 0.33476287 0
-7.7522273 3.7507634 0.28904691 0
-7.4404035 3.7237666 0.28883082 0
-6.6096125 3.7668922 0.28097689 0
-6.1204515 3.7695141 0.27654395 0
-5.9057031 3.7304118 0.27671692 0
-5.7019753 3.6957104 0.27664736 0
-5.5075011 3.6622555 0.27653974 0
-5.3029823 3.6300569 0.27611417 0
-5.1616297 3.608263 0.275718 0
-2.0675967 3.6868227 0.34407532 0
-1.9007113 3.6986222 0.33420375 0
-1.7020369 3.6812482 0.31719691 0
-1.5027174 3.6676147 0.30569255 0
-1.2987325 3.6488147 0.2916272 0
-1.0977004 3.6316195 0.27699742 0
-0.89347982 3.6127968 0.27741909 0
-0.75648916 3.6036665 0.27448118 0
-7.4669447 3.8879883 0.28049755 0
-7.2434416 3.9586456 0.27515858 0
-6.9416523 3.8667495 0.27798927 0
-6.6216497 3.8076098 0.27878335 0
-6.5399647 3.8392897 0.27628756 0
-6.3199644 3.8078561 0.27619144 0
-7.5167446 4.0129251 0.27420813 0
-25.483898 4.8072734 0.22492255 0
-15.85634 5.1711545 0.24138676 0
-26.262943 5.3351073 0.20987554 0
-15.782089 5.2682214 0.23788881 0
-11.533322 5.350853 0.22746533 0
-26.22361 5.4162607 0.20811263 0
-26.167572 5.5026999 0.20624685 0
-18.489033 5.5098891 0.22684436 0
-18.329794 5.5286679 0.22643648 0
-18.113768 5.5359278 0.22646096 0
-18.413305 5.7713499 0.21804382 0
-18.396875 5.6967545 0.22064017 0
-18.03294 5.7906947 0.21768323 0
-15.156923 5.9405174 0.21116067 0
-13.301817 5.8109832 0.21223909 0
-19.120323 6.0574112 0.20741209 0
-15.09938 6.0099053 0.20811421 0
5.6051955 -6.6617737 0.4390935 0
5.2279038 -6.5044379 0.45624694 0
5.1827831 -6.3724332 0.4519113 0
5.2761102 -6.3254833 0.44286019 0
5.3477368 -6.0932026 0.42516458 0
5.3865409 -5.9916997 0.41703606 0
4.4192686 -4.8124976 0.4174149 0
6.5389557 -4.89748 0.49661145 0
3.1394296 -4.6933527 0.50092596 0
3.3286948 -4.6545048 0.48453718 0
3.9130158 -4.6793385 0.59658778 0
4.4160953 -4.6919875 0.41113937 0
6.5404434 -4.693006 0.48445511 0
3.1294153 -4.4981723 0.48991475 0
3.3077531 -4.4838343 0.47595212 0
3.5235 -4.4024801 0.5258804 0
3.9159758 -4.5037971 0.58299863 0
4.1108465 -4.4551892 0.56939799 0
4.3536301 -4.4655957 0.55843753 0
4.4548221 -4.4808717 0.48483774 0
4.9795709 -4.4176569 0.52703369 0
5.0039825 -4.4101319 0.52550596 0
5.324728 -4.4880981 0.51750439 0
5.4210854 -4.4027996 0.50823796 0
5.7348213 -4.4652205 0.50009501 0
6.5125656 -4.4892435 0.473694 0
3.3498223 -4.3637819 0.46576619 0
3.5049455 -4.384912 0.52062917 0
3.6032951 -4.3830214 0.51968652 0
4.5324001 -4.3675518 0.54323137 0
4.6689968 -4.3421612 0.5353719 0
4.8520746 -4.385107 0.53032702 0
5.0191684 -4.3940625 0.52380353 0
5.4680567 -4.3808708 0.5050261 0
5.7606096 -4.3925076 0.49456933 0
6.4868102 -4.3423672 0.46625558 0
6.6546474 -4.3135343 0.45921353 0
6.9446678 -4.3445449 0.45165795 0
7.0787735 -4.3021164 0.44525486 0
7.2547112 -4.2954597 0.43943012 0
7.5101075 -4.3167906 0.43292123 0
7.708621 -4.2817001 0.42542523 0
8.1511059 -4.3591366 0.41674915 0
8.2791843 -4.2870402 0.40985993 0
8.5963411 -4.2935071 0.4016462 0
8.6065941 -4.3332453 0.4031598 0
1.3542051 -3.8313146 0.48771879 0
1.5038831 -3.8711731 0.51472116 0
1.6797006 -3.8432043 0.5212326 0
1.9568304 -3.8822417 0.44839349 0
2.0908561 -3.8860497 0.44498643 0
2.3100061 -3.8828161 0.46372041 0
2.4613583 -3.8418443 0.4698976 0
-1.9174314 -3.6099417 0.58717406 0
-1.6345825 -3.6670151 0.5093013 0
-0.66778976 -3.6065574 0.4675011 0
-0.50049984 -3.6171904 0.48375359 0
-0.29746187 -3.6403689 0.50214624 0
-0.11823272 -3.6396413 0.5044769 0
0.12233192 -3.6535273 0.49230835 0
0.29876789 -3.6785262 0.49136737 0
0.49885643 -3.702636 0.49926263 0
0.69035983 -3.7243326 0.51586038 0
0.89570457 -3.7444742 0.50267535 0
1.0974621 -3.7617588 0.48046449 0
1.2624418 -3.7813361 0.51558673 0
1.4172919 -3.7887139 0.54063267 0
1.7759643 -3.7879417 0.50732404 0
1.8798856 -3.7629297 0.51726395 0
2.0555921 -3.7649057 0.52826971 0
-3.0291579 -3.4003489 0.48152381 0
-2.9646249 -3.4054379 0.47713494 0
-2.6401634 -3.4284966 0.49240983 0
-2.4971883 -3.451328 0.49354506 0
-2.3154171 -3.4862614 0.48067164 0
-2.0863037 -3.4603927 0.46665967 0
-1.9226559 -3.5044017 0.51931912 0
-1.6893759 -3.5081635 0.51768965 0
-1.4860909 -3.5360713 0.50353479 0
-1.3017989 -3.5456889 0.4807868 0
-1.0949997 -3.5627823 0.49538746 0
-0.91054964 -3.5785847 0.51318145 0
-0.72045338 -3.59338 0.52527219 0
-0.012490872 -3.5739422 0.55499876 0
0.031096078 -3.5697515 0.48809355 0
3.678524 -3.4579418 0.51818115 0
7.1455169 -3.5987687 0.40891543 0
-4.429615 -3.2066336 0.57256234 0
-4.3049231 -3.2143791 0.56534582 0
-4.1036525 -3.2338881 0.49289331 0
-3.9087179 -3.263335 0.48213309 0
-3.6915944 -3.2656243 0.47122377 0
-3.5092874 -3.3182847 0.46804914 0
-3.3288136 -3.3620179 0.50210696 0
-3.0920491 -3.3667259 0.53464729 0
-2.9062269 -3.3875883 0.5387606 0
-2.7308118 -3.3819034 0.5169484 0
0.055445429 -3.278188 0.54001772 0
0.36109185 -3.2620907 0.46757942 0
1.9417206 -3.3765373 0.48426512 0
-5.6688566 -3.0151753 0.49632463 0
-5.4640827 -3.0138047 0.48999023 0
-5.2976341 -3.0500131 0.48312682 0
-5.0799761 -3.0666838 0.47531867 0
-4.8677812 -3.1154153 0.50408208 0
-4.6978788 -3.1480756 0.52401716 0
-4.5003095 -3.1782618 0.50336522 0
-4.2821417 -3.1952705 0.45880955 0
-1.2459552 -3.1365879 0.44710439 0
-6.9548626 -2.8754864 0.53873402 0
-6.6925364 -2.8409452 0.53262341 0
-6.5059676 -2.8839226 0.52589214 0
-6.299509 -2.8748875 0.52030629 0
-6.0946856 -2.8880296 0.51391375 0
-5.9146991 -2.9506581 0.5062862 0
-5.7865987 -2.9955633 0.50072366 0
-4.7509155 -2.9649503 0.53385997 0
-2.8185742 -2.9463606 0.58608031 0
-2.789274 -2.9456165 0.4880181 0
-7.6682634 -2.639786 0.56483614 0
-7.4925523 -2.6862037 0.55898947 0
-7.3187456 -2.7312601 0.55309689 0
-7.1237674 -2.7353928 0.54779482 0
-6.868969 -2.7541192 0.54031157 0
-6.7832918 -2.7791078 0.53717405 0
-8.6691217 -2.4748447 0.59408164 0
-8.4539585 -2.4642885 0.58904672 0
-8.269063 -2.4949992 0.5837236 0
-8.091917 -2.554579 0.57781065 0
-7.8814073 -2.5856555 0.57169986 0
-7.7695651 -2.5948973 0.56861168 0
-6.1806211 -2.4381924 0.53169155 0
-4.8784766 -1.411571 0.52660388 0
-4.8152719 -1.2751243 0.45517758 0
-4.7958946 -1.2758541 0.52762026 0
-4.8160105 -1.1475645 0.49436608 0
-4.7500124 -1.0728077 0.49471328 0
-4.5800896 -1.0650249 0.40562552 0
-2.068341 -0.45878556 0.50251675 0
-1.9799513 -0.4164896 0.58075124 0
-2.016464 -0.36566782 0.48503962 0
-1.9678507 -0.28811085 0.47874898 0
-2.053164 -0.10345908 0.51133108 0
-1.9731916 -0.12814932 0.54876155 0
5.6861882 1.7591057 0.51659721 0
5.6968155 1.8135564 0.5186578 0
10.569353 2.1715753 0.56072271 0
10.619469 2.1273608 0.56003118 0
10.564786 2.2634954 0.56301695 0
5.138135 2.5888982 0.44997171 0
5.2957454 2.5859225 0.48265684 0
5.512208 2.5761702 0.47896981 0
5.6928773 2.5734 0.52278143 0
5.8847332 2.5678258 0.55278921 0
6.0851002 2.5649278 0.55252492 0
6.2911134 2.558939 0.5522837 0
6.5094185 2.5517457 0.55220479 0
6.7115021 2.5463607 0.55223864 0
6.9006324 2.5435336 0.5524736 0
7.096786 2.5385592 0.55268425 0
7.3055081 2.5360038 0.55314344 0
7.4805436 2.5293083 0.55342996 0
7.7337165 2.5473239 0.5550468 0
8.2254782 2.5350294 0.55674565 0
8.4568462 2.5329089 0.55776131 0
8.6632318 2.5336616 0.55882037 0
8.8755674 2.5349026 0.55997717 0
9.1041985 2.5368562 0.56129861 0
9.3367252 2.5364604 0.5625295 0
9.5251074 2.5402904 0.56376499 0
9.6616764 2.543237 0.56468582 0
9.8732185 2.5459633 0.56608462 0
10.110634 2.5574558 0.56794447 0
10.25257 2.5578415 0.5688777 0
10.495195 2.5622816 0.57062054 0
10.766736 2.5736582 0.57279152 0
10.932935 2.5780506 0.57406414 0
11.122078 2.5840795 0.5756976 0
11.306597 2.5860395 0.57706749 0
11.524806 2.5969794 0.5789414 0
11.684789 2.5928383 0.58000135 0
-3.2525349 2.6911602 0.49209127 0
-3.1356556 2.7497671 0.42092353 0
3.0515327 2.7689605 0.54673469 0
5.1151695 2.6942167 0.49890953 0
-8.2530708 2.8837883 0.54905516 0
-8.0542431 2.9483707 0.54246402 0
-3.1019068 2.8556938 0.40348956 0
3.064333 2.8075278 0.59983134 0
5.1361046 2.9024453 0.49757031 0
-7.9357643 3.1017859 0.53478914 0
-2.1518526 3.1966105 0.47257736 0
-0.072658874 3.1208081 0.54990435 0
0.60773748 3.0476646 0.40152907 0
3.5489297 3.1844471 0.50233662 0
3.7005649 3.1780443 0.4953441 0
3.8824019 3.1698363 0.48734763 0
4.1652846 3.1928139 0.47773483 0
4.3037143 3.1823671 0.47188064 0
4.5146279 3.1680298 0.49400038 0
4.6850171 3.1509614 0.52659464 0
4.8958259 3.1410191 0.52092302 0
5.1157598 3.0961628 0.51740199 0
-7.8507848 3.202749 0.52940005 0
-3.6569171 3.3933842 0.50994736 0
-3.4930067 3.3712091 0.50152701 0
-3.2742162 3.3444977 0.52303916 0
-3.08952 3.3214679 0.53388518 0
-2.8929658 3.2940698 0.51804644 0
-2.6966424 3.2664905 0.50901079 0
-2.496383 3.2391047 0.49592537 0
-2.295738 3.2139742 0.48491031 0
-2.1228738 3.2860637 0.46607819 0
-0.083301127 3.2551813 0.40200028 0
0.55796576 3.3717425 0.40674949 0
0.69997787 3.3542669 0.48458651 0
0.83203655 3.3481882 0.49413139 0
1.7700964 3.3943005 0.45652997 0
1.899972 3.3919501 0.47275987 0
2.1050138 3.3711026 0.49194649 0
2.2970011 3.3532872 0.52802193 0
2.490907 3.2975698 0.51395792 0
2.7020607 3.2649076 0.49796194 0
2.9032726 3.2457581 0.48198277 0
3.1004503 3.2239394 0.47372204 0
3.3003833 3.2286148 0.46709633 0
3.4305789 3.2076821 0.50917941 0
4.0744867 3.20503 0.48198938 0
-5.0534496 3.598336 0.57739472 0
-4.9086447 3.5775728 0.49986333 0
-4.7230191 3.5496736 0.48335987 0
-4.5346069 3.5213909 0.41934615 0
-3.8966806 3.4220326 0.52221864 0
-3.7567983 3.4052014 0.51510072 0
-2.106024 3.4986365 0.4574818 0
-1.0510968 3.5706937 0.4879286 0
-0.89970428 3.5588646 0.51585573 0
-0.69807208 3.5441625 0.50323218 0
-0.49463794 3.5276017 0.49041447 0
-0.29939166 3.50898 0.50015444 0
-0.10914341 3.4920378 0.50065273 0
0.10130316 3.4828029 0.49656123 0
0.30952445 3.4673045 0.50570762 0
0.49991584 3.4761813 0.49587885 0
0.69097126 3.4373424 0.52024448 0
0.90612173 3.4521832 0.49097234 0
1.1002563 3.4455249 0.5060221 0
1.2944738 3.4346938 0.49687308 0
1.5008347 3.4259326 0.51188225 0
1.6842238 3.4083765 0.49780628 0
-7.6138687 3.6662736 0.50632125 0
-7.5562634 3.7224414 0.50258607 0
-6.2027121 3.7989681 0.46039301 0
-6.0926466 3.7794499 0.45791304 0
-5.9132552 3.7473977 0.45384252 0
-5.7044873 3.7096672 0.44906107 0
-5.4988599 3.6738045 0.52066714 0
-5.3044844 3.6409202 0.50340891 0
-5.1292925 3.6135197 0.49358749 0
-2.0702589 3.6861191 0.53516108 0
-1.9013993 3.6973593 0.52801979 0
-1.6982898 3.6801937 0.50756377 0
-1.4972175 3.6637468 0.49132717 0
-1.2990324 3.6494009 0.47474027 0
-1.1579648 3.6302023 0.51263601 0
-7.6587152 3.9430609 0.49651048 0
-7.5749474 3.8322284 0.49872482 0
-7.1268139 3.974875 0.48012435 0
-6.9379044 3.941288 0.47607839 0
-6.7060113 3.8941596 0.47132024 0
-6.487896 3.8519697 0.46669874 0
-6.3207984 3.8199434 0.46310318 0
-7.8967404 4.1132946 0.49610472 0
-7.7428575 4.0884867 0.49281949 0
-7.5354567 4.0525699 0.48846328 0
-7.3276396 4.0141115 0.48419625 0
-13.019284 5.927145 0.56248862 0
-12.922528 5.9356718 0.55962855 0
-12.790498 5.9915423 0.55399477 0
-12.949338 6.0042872 0.55771464 0
-15.116457 6.4377828 0.59790289 0
-15.57666 6.7647314 0.59758961 0
-15.619428 6.9096408 0.59336853 0
-15.626058 7.0168066 0.58955026 0
17.081491 -7.3176894 0.79345578 0
17.298162 -7.2009025 0.78781462 0
17.130478 -7.1988235 0.7876094 0
17.281767 -7.0597863 0.78101641 0
19.902239 -7.0601287 0.78689969 0
17.261745 -6.9121361 0.77407289 0
17.908665 -6.8230295 0.77122408 0
19.893673 -6.9421816 0.78163803 0
13.887415 -6.6911564 0.76395762 0
17.178726 -6.7451568 0.76628226 0
17.229927 -6.6979141 0.76420176 0
17.922283 -6.6901913 0.76535344 0
18.008183 -6.724793 0.76707882 0
5.1471453 -6.4058552 0.66370064 0
17.981703 -6.5756831 0.76048607 0
18.012291 -6.4787493 0.75640225 0
12.405097 -6.0927401 0.73446727 0
12.579845 -5.9147968 0.7243216 0
7.3941903 -5.6503296 0.74704158 0
27.53285 -5.3372822 0.77768975 0
6.5514097 -4.8898783 0.7021988 0
3.127723 -4.6661992 0.71203917 0
3.3024917 -4.6208849 0.66228968 0
3.9340487 -4.7173815 0.7142638 0
6.554924 -4.7210822 0.68939775 0
17.747883 -4.6586208 0.6867764 0
3.1251037 -4.4838433 0.69506353 0
3.3050637 -4.4832873 0.69092113 0
3.5674341 -4.4130893 0.73752457 0
3.6423512 -4.4170861 0.73499924 0
3.9283435 -4.5322146 0.73563296 0
4.096807 -4.4826484 0.72506976 0
4.2377129 -4.4590049 0.71826047 0
4.4657063 -4.464314 0.71186441 0
5.0133033 -4.4023509 0.69219339 0
5.3287954 -4.4902983 0.69267893 0
5.5003047 -4.407155 0.68253875 0
5.7243104 -4.4548407 0.68222427 0
6.5253334 -4.4993305 0.67336392 0
17.754843 -4.5003319 0.68188924 0
3.3501184 -4.3748894 0.67333752 0
3.4489231 -4.384655 0.71621752 0
4.5936661 -4.354847 0.69850177 0
4.7055249 -4.3609424 0.69615126 0
4.9038239 -4.3883448 0.69362986 0
5.486424 -4.3954034 0.68184185 0
5.7638493 -4.3941202 0.67678696 0
6.55023 -4.3706479 0.66377246 0
6.6612554 -4.3352723 0.66001368 0
6.9075065 -4.3554788 0.6589303 0
7.1084557 -4.3050904 0.6536783 0
7.3026209 -4.3097739 0.65236592 0
7.5090251 -4.3187928 0.65129989 0
7.6962485 -4.2771816 0.64742756 0
8.1609993 -4.3677959 0.65043437 0
8.2903214 -4.3139648 0.64664853 0
8.4990463 -4.3351417 0.64702338 0
17.77417 -4.3124385 0.67626929 0
2.3842268 -4.0067997 0.75117308 0
8.1559114 -4.0859017 0.63390332 0
8.2521095 -4.1015024 0.63447082 0
10.576952 -4.0209126 0.62958783 0
17.795059 -4.1255331 0.67093432 0
17.898981 -4.1482167 0.6723178 0
1.3596931 -3.8079264 0.73757249 0
1.5101243 -3.8583856 0.73909724 0
1.6873015 -3.8448749 0.73220098 0
1.8436935 -3.8177617 0.76329547 0
2.1646514 -3.8215733 0.70171684 0
2.3139501 -3.8629887 0.6744765 0
2.4694648 -3.8448043 0.6961363 0
17.788485 -3.9947908 0.66716921 0
17.8029 -3.8728597 0.66375047 0
-1.6264384 -3.6480176 0.70097297 0
-0.66387159 -3.6050274 0.68136638 0
-0.50016648 -3.6164079 0.70049268 0
-0.30327386 -3.6354799 0.71316731 0
-0.10153987 -3.6477673 0.69623667 0
0.10241958 -3.6593978 0.67585391 0
0.29602849 -3.6751604 0.69823211 0
0.49997935 -3.7015049 0.71973878 0
0.70274752 -3.7247684 0.70011288 0
0.90274256 -3.7417803 0.68120742 0
1.1014643 -3.7617869 0.6634987 0
1.2418058 -3.776732 0.66537058 0
1.4196092 -3.7853727 0.68712825 0
1.7710392 -3.7868545 0.65853548 0
1.9059944 -3.7668025 0.69302905 0
2.0533357 -3.7746468 0.68642163 0
2.4441748 -3.7696443 0.60916388 0
8.9023132 -3.6055553 0.60766697 0
17.823107 -3.6848524 0.65883905 0
27.087854 -3.6850739 0.73989344 0
-3.6314435 -3.4171143 0.75683957 0
-2.8923764 -3.4128864 0.76381975 0
-2.6588943 -3.4045627 0.72690982 0
-2.5049765 -3.4405348 0.69976068 0
-2.3080993 -3.4756844 0.67870778 0
-2.0853269 -3.4594584 0.6742382 0
-1.9047691 -3.5012665 0.73011893 0
-1.6906954 -3.5065043 0.70852542 0
-1.4868246 -3.534112 0.68044418 0
-1.2876391 -3.5513277 0.69035977 0
-1.1056145 -3.5684736 0.71546811 0
-0.89700031 -3.5819118 0.70297968 0
-0.75904173 -3.5945029 0.68643612 0
3.6768935 -3.4417365 0.64209414 0
7.1618981 -3.5972321 0.60934561 0
10.561005 -3.549438 0.60908604 0
17.867329 -3.5394111 0.65550232 0
18.735519 -3.4500668 0.66046947 0
19.067469 -3.4082415 0.66229963 0
26.8843 -3.464824 0.73436928 0
-4.0775127 -3.2273619 0.70861667 0
-3.9148068 -3.2729642 0.72757697 0
-3.6856318 -3.2534559 0.69940633 0
-3.5018363 -3.3145354 0.68439567 0
-3.3172486 -3.3476322 0.67037559 0
-3.1132705 -3.3626585 0.6894393 0
-2.9098859 -3.3919504 0.71524382 0
-2.7131286 -3.3855014 0.71145427 0
-1.2745384 -3.2066312 0.61294079 0
1.9408675 -3.3927679 0.61079347 0
26.987017 -3.3424842 0.73336452 0
27.025774 -3.2535388 0.73234367 0
-5.8491511 -3.0059702 0.65377027 0
-5.7154922 -3.0178661 0.64666557 0
-5.4866595 -3.0345953 0.72795683 0
-5.3123484 -3.0675206 0.68185484 0
-5.1008825 -3.0806301 0.66878486 0
-4.903965 -3.0989013 0.69708395 0
-4.7130919 -3.1389024 0.72327846 0
-4.5035009 -3.1601388 0.70742035 0
-4.3029742 -3.1930184 0.69182014 0
-1.2451195 -3.1577916 0.69106281 0
27.051035 -3.1159043 0.73051286 0
-6.9805956 -2.8912797 0.71246916 0
-6.692935 -2.8616004 0.69930351 0
-6.4927921 -2.9028077 0.68849874 0
-6.2690415 -2.8895583 0.67786837 0
-6.0915713 -2.9056144 0.66867483 0
-5.9254045 -2.9621348 0.65882581 0
-5.6629472 -2.9659979 0.7950958 0
-5.5894475 -2.9944055 0.78933221 0
-2.81252 -2.9432192 0.73535502 0
27.165041 -2.9886301 0.72976881 0
27.359758 -2.9103582 0.73057038 0
27.869488 -2.8688211 0.73499167 0
-7.8791428 -2.6487117 0.76047736 0
-7.6899934 -2.6768677 0.75106382 0
-7.4869633 -2.7357442 0.74029779 0
-7.3171482 -2.7657273 0.73158932 0
-7.1253681 -2.7553437 0.72270703 0
-6.8719192 -2.7603149 0.71044004 0
27.814684 -2.7664528 0.73311472 0
28.31876 -2.7247839 0.73755902 0
34.389175 -2.6611433 0.79692948 0
-8.2433634 -2.5083032 0.78010798 0
-8.1088352 -2.5655518 0.77280205 0
-4.898427 -1.4583267 0.64532912 0
-4.701107 -1.4176837 0.75351012 0
-4.8188038 -1.2987074 0.70674545 0
-4.7290149 -1.332985 0.71710712 0
-4.8274269 -1.1036481 0.65751022 0
-4.7941976 -1.1887646 0.76223856 0
20.025043 -0.8182503 0.63540447 0
19.880293 -0.68014127 0.633178 0
20.081356 -0.68542451 0.63530159 0
-17.027088 -0.5117684 0.79882509 0
-2.0706055 -0.46685979 0.69311827 0
19.889593 -0.54534316 0.63267589 0
20.116413 -0.47930089 0.63478339 0
-2.0164294 -0.30519068 0.70398808 0
-1.9967068 -0.26541033 0.65294766 0
17.135357 -0.26508307 0.60306561 0
17.771126 -0.36209229 0.60996437 0
-16.970024 -0.091479413 0.79812217 0
-2.0501018 -0.11002713 0.69168943 0
-1.9985111 -0.11863059 0.74992239 0
17.181784 -0.1194705 0.60303277 0
17.248552 -0.07991749 0.60369426 0
16.99972 0.057720259 0.60098428 0
17.144438 0.11675984 0.60249531 0
17.238991 0.17268613 0.60350704 0
17.550777 0.23552215 0.60681027 0
17.742359 0.29809901 0.60888588 0
17.826162 0.3634862 0.60986775 0
17.702591 0.50874037 0.6090498 0
17.582893 0.65675741 0.60840505 0
17.857777 0.72836232 0.61155295 0
17.436592 0.85556686 0.60784721 0
20.362656 0.89851487 0.63821447 0
-10.593111 1.376321 0.62800062 0
20.167877 1.3752855 0.63924384 0
20.304953 1.3115122 0.64015341 0
20.734228 1.2358279 0.64399707 0
-11.051496 1.5343583 0.63476366 0
20.2306 1.448487 0.64064437 0
21.22751 1.5939468 0.65195495 0
-10.969126 1.7038866 0.63095558 0
21.403336 1.717456 0.65483999 0
-10.948665 1.8610893 0.62827915 0
20.638235 2.044641 0.65064991 0
21.09099 2.1633155 0.65649593 0
25.219559 2.1592698 0.69731891 0
25.276638 2.2929385 0.69926298 0
5.1373725 2.5915034 0.74036163 0
5.2880964 2.5868034 0.74393487 0
5.4829345 2.5811734 0.74879742 0
5.694963 2.5734012 0.75425798 0
5.8964138 2.56512 0.75954318 0
6.0892696 2.5584362 0.76493824 0
6.2938085 2.5519753 0.77092266 0
6.5155253 2.5457921 0.77774358 0
6.721704 2.5411212 0.78427196 0
6.9054933 2.5308282 0.78985763 0
7.1045117 2.5297098 0.79659134 0
25.285904 2.4214442 0.7007491 0
-7.7232089 2.7466848 0.73033684 0
-3.2594948 2.7258976 0.61898893 0
4.1228867 2.7338164 0.73138666 0
4.9817624 2.7823739 0.75130659 0
5.1086879 2.7050738 0.74822187 0
-8.1108112 2.960489 0.74255061 0
0.67571127 2.9959209 0.680516 0
1.3459558 2.9460249 0.69558382 0
1.4345632 2.9538209 0.69004357 0
2.0809693 2.9959445 0.65565687 0
3.0882075 2.8130715 0.73274118 0
4.5062861 2.8617468 0.74886948 0
4.7366667 2.9532666 0.76079237 0
5.1106606 2.9104128 0.76446557 0
-8.0281487 3.0460904 0.73684001 0
-7.9704013 3.1410887 0.73194158 0
-2.155849 3.1964762 0.66075701 0
-1.0102745 3.1704042 0.66129005 0
-0.43875757 3.1572857 0.66956961 0
0.08145421 3.0880694 0.67492962 0
0.77546585 3.1930497 0.68907565 0
1.6133161 3.1690247 0.70222473 0
3.5466347 3.1700945 0.77133065 0
3.7129762 3.1791234 0.71589857 0
3.8771286 3.1714873 0.69784504 0
4.1177406 3.1942987 0.77565932 0
4.3156543 3.1796262 0.70666879 0
4.5002112 3.1660116 0.7029739 0
4.7158809 3.1514075 0.7781834 0
4.9062696 3.1323435 0.77944881 0
5.0948348 3.0753443 0.7778734 0
-3.6690662 3.3954403 0.73181176 0
-3.5024736 3.377543 0.6724332 0
-3.3109078 3.3516886 0.67729956 0
-3.091532 3.3183386 0.69988018 0
-2.9006202 3.2960503 0.73634583 0
-2.7036641 3.2690003 0.71342874 0
-2.5012212 3.2401543 0.69893187 0
-2.2985709 3.2136567 0.67536247 0
-2.1237948 3.2744133 0.67368108 0
-1.8170277 3.2950168 0.67051822 0
-1.0810794 3.2112687 0.67062593 0
-0.52690083 3.3803766 0.69030774 0
0.029963681 3.3436208 0.69852817 0
0.75893843 3.3013506 0.70098495 0
1.3516279 3.2559807 0.7311455 0
1.4497788 3.3886466 0.73910868 0
1.7614409 3.3960087 0.65807694 0
1.9047714 3.3885658 0.64747387 0
2.0857482 3.3810208 0.67928863 0
2.2960434 3.3701594 0.68416649 0
2.5068564 3.3025048 0.71161056 0
2.6964986 3.2713616 0.72396302 0
2.8967774 3.2574532 0.71664214 0
3.101944 3.2411134 0.71304721 0
3.2937984 3.2172837 0.70368135 0
3.4811256 3.2156904 0.66537517 0
3.6490955 3.2061474 0.61921012 0
3.9961193 3.2169991 0.61235112 0
4.1087503 3.2121208 0.64322817 0
4.2454491 3.2034304 0.6065132 0
-4.9035678 3.5875814 0.7131508 0
-4.7008953 3.5537488 0.69956023 0
-4.5542955 3.5287721 0.68971723 0
-4.1110449 3.4533963 0.79206502 0
-3.9082861 3.4282203 0.70473993 0
-3.7348092 3.4100819 0.65847117 0
-2.0983925 3.4842682 0.65160066 0
-1.9174116 3.4585104 0.68143189 0
-1.2617203 3.5238762 0.60873646 0
-1.040212 3.5585139 0.71448702 0
-0.89993376 3.5692604 0.70076019 0
-0.68729997 3.5484385 0.69474638 0
-0.49730986 3.5260761 0.69455749 0
-0.3024064 3.5151396 0.70982599 0
-0.10264169 3.4959662 0.68330687 0
0.10990429 3.4822381 0.69858634 0
0.28910789 3.4717624 0.70277953 0
0.4986794 3.4948196 0.70110703 0
0.69625539 3.4607844 0.67252427 0
0.90778995 3.4598579 0.69314909 0
1.0962169 3.4528766 0.72638988 0
1.2964501 3.4366598 0.70852685 0
1.5007629 3.4205871 0.67877746 0
1.6819434 3.4107721 0.67201722 0
1.8870308 3.405072 0.71104813 0
-6.1054053 3.7815228 0.72524136 0
-5.8904901 3.7392325 0.68513459 0
-5.6730194 3.7046063 0.68496293 0
-5.4879284 3.6801193 0.7520892 0
-5.3106389 3.6510985 0.74035889 0
-5.1127882 3.6190622 0.72719228 0
-2.0599678 3.6761208 0.70638108 0
-1.8906285 3.6989951 0.73361015 0
-1.6976589 3.6854291 0.70371133 0
-1.5010511 3.6716893 0.68081057 0
-1.2903941 3.6462653 0.68767875 0
-1.157714 3.6363525 0.73061544 0
-7.2589655 3.9898775 0.67397261 0
